-20.388887 -20.420793 -20.457577 -20.442709 -19.818130 -19.155373 -18.809999 -18.809999 -18.809999 -18.809999 -18.809999 -18.809999 -18.791469 -18.801107 -18.805172 -18.809999 -18.809999 -18.809999 -18.787277 -18.600472 -18.412207 -18.223941 -18.035675 -17.909265 -17.650235 -17.324118 -17.022781 -16.948413 -16.956475 -16.964694 -16.972913 -16.981132 -16.989352 -16.990907 -16.770016 -16.531672 -16.293328 -16.053102 -15.762578 -15.458329 -15.154080 -14.849830 -14.549793 -14.491420 -14.460940 -13.997069 -13.501844 -13.006618 -12.511393 -12.016168 -11.559333 -11.334507 -11.130282 -10.928456 -10.726630 -10.524665 -10.242347 -9.919764 -9.597181 -9.273047 -8.931829 -8.571837 -8.260784 -7.949732 -7.638679 -7.327627 -7.016574 -6.705522 -6.394469 -6.098512 -5.923823 -5.799484 -5.699897 -5.596565 -5.493232 -5.389900 -5.286568 -5.183236 -5.079904 -5.000000 -5.000000 -5.000000 -4.976212 -4.885313 -4.811599 -4.737115 -4.662632 -4.588149 -4.513666 -4.439183 -4.364700 -4.290217 -4.215734 -4.141250 -4.066767 -4.001116 -4.000000 -4.000000 -3.999610 -3.745654 -3.461669 -3.177048 -2.714666 -1.942918 -1.167391 -0.922973 -0.821904 -0.699711 -0.574693 -0.449676 -0.324659 -0.199642 -0.074624 0.149699 0.521082 0.892465 1.235237 1.371622 1.504035 1.636449 1.768862 1.901276 2.033689 2.166103 2.263446 2.248215 2.196161 2.019696 2.043589 2.186237 2.328885 2.471532 2.614180 2.915023 3.138433 3.239654 0.973801 -0.084168 1.971549 2.052571 3.193779 4.344590 5.514129 6.709408 7.929423 9.172175 10.752385 12.921981 14.657529 15.976596 17.126690 18.237702 19.261486 20.309830 21.582478 22.881079 24.169258 25.471236 26.732689 28.022312 29.045761 30.063496 31.461959 32.890629 34.224858 35.179112 36.001858 36.365067 36.471868 36.397623 36.259185 36.095672 35.780849 35.223109 34.664500 34.188718 33.564132 33.012982 32.571073 32.269041 32.032316 31.804844 31.566484 31.257410 30.923003 30.570020 30.155080 29.904128 29.896256 30.000000 30.000000 30.000000 30.000000 30.000000 30.000000 30.000000 30.000000 30.000000 30.000000 31.642145 34.870728 38.201451 41.282050 44.001965 46.737405 49.489542 53.397161 57.540667 60.959811 63.346924 65.747527 68.159615 70.814378 74.216261 77.625490 80.555747 82.386234 84.189189 85.953697 87.702242 89.433312 91.007548 92.515788 94.034689 95.542607 97.049765 98.556790 100.047488 101.506762 102.994275 104.439906 105.749788 106.959267 108.051569 109.165390 110.066951 111.029995 112.014919 113.035748 113.967653 114.166178 114.280867 114.307173 114.304487 114.242765 114.011650 113.288809 112.489010 111.669077 110.733575 109.688431 108.665984 107.651121 106.653369 105.654669 104.647101 103.528027 102.246052 100.874581 99.037861 96.826496 95.076815 93.681589 92.356816 91.132534 89.859804 87.907260 85.718938 83.382650 80.724949 75.725789 69.919111 61.505851 60.000000 60.462180 66.728073 69.014936 70.750465 72.140680 72.526237 71.168557 69.502840 68.166204 66.940772 65.846105 64.935338
-20.775770 -20.793081 -20.769177 -20.280711 -19.771260 -19.261810 -18.813608 -18.809999 -18.809999 -18.809999 -18.838908 -18.909280 -18.923455 -18.931861 -18.809999 -18.809999 -18.809999 -18.809999 -18.691314 -18.503048 -18.314783 -18.126517 -17.974834 -17.898677 -17.572560 -17.246444 -17.117439 -17.049092 -17.056960 -17.065180 -17.073399 -17.081618 -17.089837 -17.087791 -16.862512 -16.624169 -16.385824 -16.147480 -15.909137 -15.670793 -15.389803 -15.085554 -14.781305 -14.477055 -14.360220 -14.281746 -13.793670 -13.298445 -12.803220 -12.307994 -11.925790 -11.700654 -11.487429 -11.285602 -11.007247 -10.683194 -10.354722 -10.025078 -9.695433 -9.336334 -8.912992 -8.503789 -8.192122 -7.881070 -7.570017 -7.258965 -6.947912 -6.636860 -6.372491 -6.147721 -5.955883 -5.847031 -5.743698 -5.640366 -5.537034 -5.433702 -5.330370 -5.227038 -5.123706 -5.020373 -5.000000 -5.000000 -4.986567 -4.926602 -4.859798 -4.786378 -4.711895 -4.637412 -4.562929 -4.488445 -4.413962 -4.339479 -4.264996 -4.190513 -4.116030 -4.041547 -4.000000 -4.000000 -3.987597 -3.717020 -3.433762 -3.151418 -2.605359 -1.735773 -1.001071 -0.894089 -0.795859 -0.697630 -0.598730 -0.479572 -0.354554 -0.229537 -0.104520 0.060890 0.432273 0.802052 0.973850 1.106263 1.238677 1.371090 1.503504 1.635918 1.768331 1.900745 2.033158 2.158213 2.130544 2.179835 2.322483 2.465130 2.605891 2.738116 2.868076 2.995218 3.079517 3.187293 2.446226 -0.424142 2.112341 1.910366 2.882830 4.112628 5.386548 6.665020 7.951572 9.276057 11.076602 13.387928 15.017620 16.308443 17.403297 18.454677 19.433816 20.688009 22.232809 23.607946 24.724065 25.829034 26.976373 28.091006 28.967730 29.783864 31.023304 32.426628 33.833164 34.758864 35.326008 35.567589 35.635422 35.540982 35.396802 35.247573 35.039659 34.610235 33.995381 33.292780 32.591428 31.951697 31.464743 31.187147 31.028146 30.803885 30.572899 30.327783 30.066369 29.889923 29.734780 29.637255 29.691615 29.869747 30.000000 30.000000 30.000000 30.000000 30.000000 30.000000 30.000000 30.000000 30.000000 30.933254 34.597291 38.299212 41.511774 44.285601 47.035937 49.789709 53.866100 58.064305 61.280271 63.658271 66.036282 68.411348 71.109736 74.431615 77.762637 80.632877 82.519127 84.389317 86.242317 88.085348 89.887828 91.353134 92.809734 94.292858 95.767599 97.276408 98.789517 100.281960 101.669858 103.052253 104.361314 105.522082 106.571397 107.531208 108.428277 109.172863 109.857118 110.826215 111.881857 112.846037 113.605816 113.997318 114.027217 113.992335 113.598394 112.919090 112.097129 111.270938 110.443684 109.589054 108.649278 107.645174 106.625492 105.611709 104.603460 103.581923 102.525761 101.337884 99.969158 97.520999 95.231573 93.377488 91.837638 90.649042 89.265827 87.650935 86.168222 84.206851 81.846865 78.101114 71.952020 65.541592 60.000000 60.000000 63.216588 65.780690 67.159372 68.101899 69.464043 69.658752 67.923521 65.927962 64.183274 62.563895 61.049419 60.321428
-20.688543 -20.677087 -20.665632 -20.624109 -20.070814 -19.492569 -18.969089 -18.809999 -18.844140 -18.915239 -18.986338 -19.043375 -19.051781 -18.914821 -18.809999 -18.809999 -18.809999 -18.782156 -18.593891 -18.405625 -18.217360 -18.043150 -18.118345 -17.821002 -17.494885 -17.294467 -17.218225 -17.149773 -17.157447 -17.165665 -17.173884 -17.182104 -17.190324 -17.184676 -16.955009 -16.716666 -16.478321 -16.239977 -16.001633 -15.763290 -15.524946 -15.286602 -15.017028 -14.712779 -14.408530 -14.229020 -14.085496 -13.590271 -13.095046 -12.599821 -12.292247 -12.067111 -11.764989 -11.435344 -11.105700 -10.776056 -10.446411 -10.116767 -9.738369 -9.315028 -8.891686 -8.468345 -8.123461 -7.812408 -7.501356 -7.190303 -6.882358 -6.647586 -6.422019 -6.194994 -5.984503 -5.885447 -5.785543 -5.684168 -5.580836 -5.477504 -5.374171 -5.270839 -5.167507 -5.064175 -5.000000 -5.000000 -4.966663 -4.909783 -4.849116 -4.788963 -4.728948 -4.668763 -4.606941 -4.537574 -4.463225 -4.388742 -4.314259 -4.239776 -4.165292 -4.090809 -4.016326 -4.000000 -3.956644 -3.657702 -3.363069 -3.076603 -2.479233 -1.675792 -0.982713 -0.877352 -0.771991 -0.669566 -0.570517 -0.472288 -0.374058 -0.259433 -0.134415 -0.006008 0.343464 0.576078 0.708492 0.840905 0.973319 1.105732 1.238146 1.370559 1.510658 1.660391 1.815503 1.970616 2.099193 2.206938 2.318155 2.429373 2.540590 2.651808 2.766348 3.009873 3.101148 3.133605 3.223747 0.228673 0.626707 2.003125 2.523380 3.871465 5.251558 6.666226 8.056503 9.495741 11.487048 13.821299 15.306404 16.503324 17.485870 18.445256 19.384290 20.585551 22.278067 23.921642 24.953882 25.937176 26.951548 27.899722 28.717990 29.530712 30.589145 31.992029 33.356094 34.232310 34.586246 34.787824 34.794937 34.678984 34.532463 34.389420 34.228748 33.932475 33.327068 32.532743 31.727029 30.996101 30.374910 30.096605 30.024251 29.904310 29.794716 29.687153 29.585970 29.515197 29.455402 29.370107 29.486975 29.665107 29.843239 29.995774 30.000000 30.000000 30.000000 30.000000 30.000000 30.000000 30.000000 30.829390 34.455070 38.104287 41.427898 44.349424 47.211574 50.134320 54.265871 58.461303 61.536341 63.953246 66.354884 68.740477 71.464793 74.622078 77.841893 80.647519 82.582211 84.514484 86.445185 88.359735 90.197085 91.641082 93.083405 94.523684 95.949124 97.396956 98.850675 100.270283 101.570033 102.828216 104.012898 105.020999 105.929188 106.808931 107.597146 108.312702 109.050957 109.810395 110.765898 111.684341 112.370536 112.842330 112.992409 112.811087 112.380179 111.752331 110.945860 110.088052 109.298656 108.489272 107.590904 106.613449 105.602760 104.584435 103.570720 102.556282 101.502180 100.394398 98.302886 95.798503 93.479826 91.423042 89.759487 88.013579 86.315623 84.973206 83.992268 82.594922 80.599057 74.471385 67.918174 61.878962 60.000000 60.000000 63.785508 65.480526 66.244407 66.948797 67.689636 67.354306 65.134633 62.796392 60.605398 60.000000 60.000000 60.000000
-20.590943 -20.550027 -20.538572 -20.527116 -20.475162 -19.914016 -19.331579 -18.920471 -18.991570 -19.062670 -19.133769 -19.171700 -19.168758 -18.816338 -18.809999 -18.809999 -18.809999 -18.684733 -18.496468 -18.308202 -18.125242 -18.191462 -18.069444 -17.743327 -17.471495 -17.395252 -17.319010 -17.250453 -17.257932 -17.266151 -17.274371 -17.282590 -17.290809 -17.281560 -17.047506 -16.809162 -16.570818 -16.332474 -16.094130 -15.855787 -15.617443 -15.379099 -15.140755 -14.902411 -14.643497 -14.340004 -14.099695 -13.882098 -13.386873 -12.901376 -12.658705 -12.338633 -11.875570 -11.527033 -11.197389 -10.867744 -10.538100 -10.140404 -9.717063 -9.293722 -8.870380 -8.447039 -8.054799 -7.743746 -7.432694 -7.147251 -6.921858 -6.693273 -6.461629 -6.229936 -6.003579 -5.892946 -5.787039 -5.680920 -5.583501 -5.496465 -5.403787 -5.310074 -5.211309 -5.107977 -5.007569 -5.000000 -4.949614 -4.885568 -4.828166 -4.774038 -4.715043 -4.653991 -4.592330 -4.531440 -4.471336 -4.410877 -4.349236 -4.285478 -4.214555 -4.140072 -4.065589 -4.000869 -3.895776 -3.586149 -3.279698 -2.957807 -2.312158 -1.621309 -0.986653 -0.879066 -0.775295 -0.671524 -0.567151 -0.461791 -0.356430 -0.251069 -0.149175 -0.039294 0.178306 0.311261 0.452470 0.604643 0.759756 0.914869 1.069981 1.225094 1.380206 1.535319 1.690432 1.845544 1.996505 2.091823 2.203040 2.314258 2.425475 2.537751 2.771879 3.033852 3.170436 3.195442 3.220448 1.837596 -0.396043 2.134955 2.099047 3.597505 5.120669 6.667945 8.240246 9.883443 12.015630 14.162642 15.408843 16.496868 17.423287 18.348996 19.284809 20.403657 22.119492 23.829996 24.930628 25.959985 26.841628 27.659057 28.463119 29.276878 30.158529 31.564538 32.754714 33.485694 33.826649 33.999513 33.958952 33.816871 33.668784 33.525903 33.380723 33.179423 32.702302 31.976935 31.117173 30.253745 29.840030 29.589150 29.515087 29.417390 29.312008 29.211147 29.142855 29.145572 29.191918 29.120179 29.282335 29.460466 29.638599 29.816731 29.986293 30.000000 30.000000 30.000000 30.000000 30.000000 30.000000 31.512070 34.641036 37.850770 41.110402 44.230650 47.327349 50.461969 54.586068 58.717363 61.741699 64.247090 66.718007 69.156454 71.940065 74.931819 77.977704 80.680047 82.640296 84.595178 86.547117 88.495893 90.320771 91.738172 93.149206 94.542068 95.912351 97.294428 98.662845 100.000553 101.204873 102.348974 103.423198 104.384214 105.235537 106.011546 106.773986 107.548338 108.362999 109.104558 109.781999 110.524580 111.124032 111.573080 111.710991 111.552126 111.152758 110.568428 109.840959 109.043928 108.221945 107.409217 106.550144 105.586617 104.578490 103.561225 102.545049 101.530446 100.503952 98.782925 96.347621 93.857602 91.451082 89.310897 87.305993 85.293212 83.358673 81.925287 81.297494 80.522243 76.726044 69.837592 63.947175 59.353261 59.527347 59.974794 64.166308 64.900961 65.344524 65.624048 65.813347 64.999041 62.606959 60.169699 59.233235 59.783128 60.000000 61.590537
-20.627994 -20.519136 -20.418914 -20.400055 -20.388600 -20.322195 -19.757221 -19.174783 -19.139001 -19.210101 -19.281200 -19.300026 -19.065268 -18.809999 -18.809999 -18.809999 -18.775575 -18.587309 -18.399044 -18.210778 -18.249686 -18.310658 -17.991770 -17.671496 -17.572280 -17.496038 -17.419795 -17.351133 -17.358418 -17.366637 -17.374856 -17.383076 -17.391295 -17.378444 -17.140003 -16.901659 -16.663315 -16.424971 -16.186627 -15.948283 -15.709939 -15.471596 -15.233252 -14.994908 -14.756564 -14.518220 -14.267973 -13.984116 -13.678699 -13.250298 -12.930494 -12.467432 -12.004368 -11.618722 -11.289078 -10.956160 -10.542439 -10.119098 -9.695757 -9.272415 -8.849074 -8.425733 -8.002391 -7.675085 -7.421252 -7.190030 -6.956103 -6.722470 -6.506933 -6.300066 -6.040736 -5.899776 -5.794984 -5.691499 -5.587862 -5.482766 -5.377639 -5.272470 -5.180009 -5.093930 -5.008792 -5.000000 -4.951065 -4.886869 -4.822672 -4.758475 -4.694279 -4.635581 -4.580499 -4.520119 -4.459284 -4.398265 -4.336530 -4.274670 -4.213792 -4.152945 -4.091175 -4.029286 -3.834826 -3.521586 -3.207045 -2.804311 -2.214735 -1.591215 -1.000808 -0.836331 -0.698812 -0.597389 -0.495965 -0.394541 -0.293117 -0.191693 -0.090269 0.144481 0.145767 0.227755 0.331997 0.479572 0.634684 0.789797 0.944910 1.100022 1.255135 1.410247 1.565360 1.720473 1.875585 1.976708 2.087926 2.199143 2.310361 2.533886 2.795859 3.057831 3.239724 3.264730 3.281958 2.827725 -0.312276 1.389416 2.034702 3.219252 5.009805 6.802171 8.594536 10.425547 12.463223 14.335790 15.482191 16.479330 17.363803 18.255395 19.191732 20.230998 21.943141 23.653094 24.820899 25.826731 26.621674 27.401810 28.210329 29.025188 29.842187 31.120782 32.216349 32.697408 33.037154 33.177881 33.101201 32.954213 32.806356 32.662921 32.522848 32.363516 32.040656 31.396072 30.599780 29.872124 29.465610 29.196261 29.041537 28.931633 28.823719 28.730836 28.709525 28.801615 28.928434 28.899563 29.077695 29.255826 29.433958 29.612090 29.790222 29.967390 30.000000 30.000000 30.000000 30.000000 30.064797 32.416804 35.052280 37.820110 40.803076 44.076356 47.332013 50.724872 54.768730 58.825990 61.893135 64.517471 67.083574 69.645598 72.499156 75.406693 78.328093 80.828283 82.746086 84.649369 86.512677 88.423325 90.230939 91.609712 92.980023 94.334797 95.668275 96.977532 98.247969 99.512114 100.692346 101.761013 102.787296 103.702509 104.486513 105.282849 106.097242 106.938354 107.716882 108.432285 109.071360 109.560984 109.919451 110.302813 110.428859 110.290822 109.931268 109.410923 108.771927 108.035119 107.203243 106.356383 105.499987 104.593650 103.576895 102.543284 101.521682 100.506127 98.969159 96.757380 94.377972 91.882951 89.521202 87.531435 85.432789 83.297547 80.963469 77.936825 76.515060 75.014680 70.967060 65.022723 58.803392 56.389797 58.544973 60.356802 64.000000 64.140005 64.579334 64.874654 64.491344 62.577702 60.080145 57.949462 58.263270 58.915909 59.829912 64.079576
-20.665044 -20.556186 -20.447329 -20.338472 -20.261539 -20.250084 -20.169228 -19.600423 -19.286432 -19.357531 -19.419945 -19.351668 -18.929315 -18.809999 -18.809999 -18.809999 -18.678152 -18.489886 -18.301621 -18.307909 -18.413847 -18.240212 -17.914096 -17.749308 -17.673065 -17.596822 -17.520580 -17.451813 -17.458939 -17.467123 -17.475343 -17.483561 -17.491781 -17.474826 -17.232499 -16.994156 -16.755812 -16.517468 -16.279124 -16.040780 -15.802436 -15.564093 -15.325749 -15.087405 -14.849061 -14.610717 -14.372373 -14.134030 -13.890590 -13.522357 -13.059293 -12.596230 -12.133167 -11.710411 -11.366210 -10.944475 -10.521133 -10.097792 -9.674451 -9.254193 -8.837259 -8.427861 -8.055686 -7.854870 -7.669462 -7.484055 -7.298648 -7.113241 -6.923638 -6.528106 -6.073044 -5.907197 -5.796875 -5.686270 -5.576976 -5.466858 -5.357764 -5.252997 -5.152177 -5.051825 -5.000000 -5.000000 -4.952516 -4.888320 -4.824123 -4.759926 -4.695730 -4.631533 -4.567336 -4.503140 -4.443137 -4.386421 -4.325263 -4.264294 -4.203640 -4.142539 -4.080749 -4.018880 -3.776324 -3.458959 -3.141697 -2.688736 -2.125053 -1.555010 -1.006104 -0.839262 -0.685542 -0.530369 -0.412652 -0.311228 -0.209805 -0.108381 0.020354 0.821678 0.301393 0.382647 0.464635 0.546623 0.628611 0.710599 0.822597 0.974951 1.130063 1.285176 1.440288 1.595401 1.750513 1.862436 1.972811 2.084029 2.295893 2.557865 2.819838 3.081811 3.311429 3.334018 3.305853 3.223823 1.432485 -0.329652 2.166532 2.746731 4.915878 7.066989 9.171515 11.046223 12.941055 14.486911 15.572682 16.510395 17.348398 18.203223 19.116267 20.085244 21.747001 23.380434 24.546710 25.427907 26.338537 27.150657 27.960192 28.776257 29.593116 30.594423 31.462241 31.923354 32.254079 32.355363 32.241733 32.091952 31.944132 31.800317 31.659847 31.516677 31.310948 30.803120 30.082979 29.598075 29.198280 28.814691 28.581045 28.449317 28.335374 28.248831 28.302298 28.459293 28.664951 28.694922 28.873054 29.051186 29.229318 29.407450 29.585582 29.763714 29.941846 30.000000 30.000000 30.000000 31.066522 33.268118 35.491081 37.940529 40.644562 43.988106 47.327385 50.795825 54.813193 58.815453 61.975845 64.753763 67.480158 70.176296 73.120610 76.033345 78.921341 81.100450 82.901955 84.647078 86.398570 88.208496 89.983353 91.349720 92.673936 93.971124 95.221048 96.413983 97.581521 98.842068 100.143551 101.193217 102.142109 102.992724 103.865181 104.723246 105.558936 106.337189 107.078825 107.769403 108.358476 108.761804 109.105298 109.344725 109.338721 109.159971 108.816074 108.310798 107.668739 106.990039 106.220175 105.360291 104.490998 103.597477 102.606972 101.564080 100.514708 99.058786 97.068714 94.846037 92.538408 90.089833 88.240375 86.259090 84.214921 82.117131 79.685780 73.951344 70.413841 68.671863 64.312737 58.539786 50.756907 52.912234 59.858437 64.000000 64.000000 64.000000 64.000000 64.249676 62.717423 59.617599 56.443775 55.087634 56.085853 57.924410 61.019928 64.241355
-20.702095 -20.593238 -20.484379 -20.375522 -20.266665 -20.157807 -20.111568 -20.016260 -19.471560 -19.504962 -19.548270 -19.215714 -18.822454 -18.809999 -18.809999 -18.768993 -18.580729 -18.392463 -18.366133 -18.472071 -18.488654 -18.162537 -17.926336 -17.850093 -17.773851 -17.697608 -17.621366 -17.552493 -17.559494 -17.567609 -17.575829 -17.584048 -17.592267 -17.567826 -17.325003 -17.086653 -16.848309 -16.609965 -16.371620 -16.133276 -15.894933 -15.656589 -15.418246 -15.179902 -14.941558 -14.703214 -14.464870 -14.226527 -13.988216 -13.692007 -13.221527 -12.751046 -12.280565 -11.804700 -11.392573 -10.985106 -10.577638 -10.170170 -9.762703 -9.355235 -8.951526 -8.703741 -8.502212 -8.300683 -8.111823 -7.926416 -7.741009 -7.473544 -7.017735 -6.557562 -6.096726 -5.911992 -5.800583 -5.689456 -5.578530 -5.467604 -5.356678 -5.246001 -5.135402 -5.024802 -5.000000 -5.000000 -4.953967 -4.889771 -4.825574 -4.761377 -4.697181 -4.632984 -4.568787 -4.504591 -4.440394 -4.376197 -4.312001 -4.250895 -4.191707 -4.130468 -4.069306 -4.008649 -3.724539 -3.398311 -3.075019 -2.592473 -2.052255 -1.510352 -0.996759 -0.838876 -0.686185 -0.533733 -0.380057 -0.231142 -0.126492 -0.025068 0.871433 1.174027 0.557651 0.537540 0.619528 0.701516 0.783503 0.865491 0.947479 1.029467 1.111454 1.193442 1.315351 1.470329 1.625442 1.767116 1.857696 2.057899 2.319872 2.581845 2.843817 3.105790 3.361257 3.390117 3.321699 3.238050 2.217928 -0.475931 1.946226 2.167364 4.472670 7.105981 9.774798 11.519873 13.214994 14.570833 15.620809 16.531386 17.365301 18.206264 19.063423 19.896095 21.267555 22.594760 23.925405 24.925434 25.966520 26.761237 27.598814 28.446290 29.200813 30.111942 30.734497 31.154769 31.479650 31.511200 31.380565 31.230276 31.082842 30.938415 30.796252 30.657287 30.499678 30.186394 29.709790 29.272582 28.862334 28.491270 28.164609 27.973157 27.856335 27.886298 27.982963 28.168602 28.401467 28.490282 28.668414 28.846546 29.024677 29.202809 29.380941 29.559074 29.737206 29.915338 30.000000 30.493828 32.114880 33.984586 35.927623 38.151279 40.639749 43.962516 47.250613 50.644168 54.699070 58.757892 62.017895 64.891330 67.740895 70.622529 73.684707 76.703564 79.657581 81.442137 83.094452 84.744402 86.327825 87.982374 89.610887 90.958228 92.205085 93.390607 94.511257 95.598039 96.805791 98.120591 99.498458 100.626901 101.547092 102.458032 103.362765 104.218502 104.990565 105.739466 106.454161 107.115087 107.596008 107.962877 108.287748 108.472671 108.373914 108.103585 107.727964 107.242535 106.575841 105.904495 105.199783 104.397853 103.520424 102.614895 101.641420 100.608254 99.276047 97.493593 95.454363 93.236073 90.908048 88.868761 87.114212 85.326805 83.346970 81.285858 78.531769 74.397712 69.040071 63.732809 57.527953 50.706878 50.000000 56.386986 64.000000 64.000000 64.000000 64.000000 64.000000 63.441914 59.618913 55.935919 52.592233 51.436149 53.597892 57.390723 62.292884 64.000000
-20.739145 -20.630288 -20.521430 -20.412572 -20.303715 -20.194858 -20.086000 -19.982670 -19.863292 -19.652393 -19.502115 -19.079760 -18.809999 -18.809999 -18.809999 -18.671570 -18.483305 -18.424357 -18.530295 -18.636233 -18.410979 -18.109536 -18.027120 -17.950878 -17.874635 -17.798393 -17.722150 -17.653173 -17.660061 -17.668095 -17.676314 -17.684534 -17.692753 -17.660827 -17.417740 -17.179150 -16.940806 -16.702462 -16.464117 -16.225773 -15.987430 -15.749086 -15.510742 -15.272398 -15.034055 -14.795711 -14.557367 -14.319023 -14.080972 -13.843123 -13.405038 -12.934557 -12.464076 -11.943933 -11.505012 -11.097544 -10.690076 -10.282608 -9.875140 -9.558669 -9.357140 -9.155611 -8.954082 -8.752553 -8.554184 -8.363719 -7.962317 -7.501768 -7.042313 -6.584689 -6.128911 -5.919674 -5.807668 -5.695663 -5.583657 -5.471744 -5.360018 -5.248190 -5.135099 -5.019980 -5.000000 -5.000000 -4.955418 -4.891222 -4.827025 -4.762828 -4.698632 -4.634435 -4.570238 -4.506042 -4.441845 -4.377648 -4.313452 -4.249255 -4.185058 -4.120862 -4.058108 -3.977397 -3.650296 -3.318712 -2.981735 -2.468704 -1.941494 -1.410524 -0.930338 -0.710273 -0.578652 -0.447031 -0.315410 -0.183788 -0.052167 0.664730 1.822266 1.526375 0.910000 0.692433 0.774421 0.856408 0.938396 1.020384 1.102372 1.184359 1.266347 1.348335 1.430323 1.512310 1.594298 1.676403 1.817961 2.080170 2.342351 2.604348 2.866344 3.128340 3.390336 3.419997 3.336597 3.249523 3.077554 0.707011 0.288440 2.198108 3.870780 6.950831 10.110473 11.665970 13.202038 14.470672 15.464300 16.361860 17.176869 17.999367 18.751753 19.400195 20.153778 21.446263 22.853387 24.186977 25.179907 26.094115 26.848485 27.634769 28.299639 29.022928 29.925772 30.403880 30.704020 30.658776 30.519574 30.368517 30.221484 30.076969 29.941121 29.828283 29.759600 29.637318 29.309823 28.890178 28.480133 28.102901 27.755901 27.502371 27.393984 27.442131 27.578114 27.873466 28.137983 28.285642 28.463773 28.641905 28.820037 28.998169 29.182298 29.372089 29.568495 29.767420 29.997926 31.366752 32.919019 34.566072 36.350754 38.373434 40.634928 43.872518 47.106288 50.424133 54.567981 58.760625 62.058496 64.970841 67.881092 70.853324 74.002299 77.135926 80.108407 81.667676 83.223663 84.748115 86.237289 87.717593 89.126002 90.370366 91.497793 92.555260 93.605250 94.753076 96.025604 97.387678 98.793924 100.160269 101.087783 102.000871 102.859671 103.669432 104.437198 105.153331 105.860849 106.434894 106.822853 107.158572 107.460778 107.594308 107.429049 107.097094 106.675075 106.203495 105.564402 104.848082 104.139639 103.398710 102.570827 101.666671 100.717041 99.400322 97.708639 96.026056 94.062573 91.844564 89.597609 87.666451 85.867619 84.246079 82.473331 80.481742 77.536105 75.091567 71.275663 62.533247 54.454479 50.000000 50.782335 60.901374 64.000000 64.000000 64.000000 64.000000 63.992426 60.447634 56.730414 52.951462 50.000000 50.000000 53.398952 57.952119 62.409931 64.000000
-20.776195 -20.667338 -20.558481 -20.449623 -20.340766 -20.231908 -20.123051 -20.014193 -19.905336 -19.769915 -19.366161 -18.943807 -18.809999 -18.809999 -18.762413 -18.574147 -18.482580 -18.588519 -18.694457 -18.659421 -18.333305 -18.204149 -18.127906 -18.051663 -17.975421 -17.899178 -17.822935 -17.753853 -17.760628 -17.768581 -17.776801 -17.785020 -17.793238 -17.753827 -17.510506 -17.271646 -17.033303 -16.794958 -16.556614 -16.318270 -16.079927 -15.841583 -15.603239 -15.364895 -15.126551 -14.888208 -14.649864 -14.411594 -14.173745 -13.935896 -13.588549 -13.118068 -12.623415 -12.090882 -11.617450 -11.209982 -10.802514 -10.422468 -10.212068 -10.010539 -9.809010 -9.607481 -9.403745 -9.167139 -8.905356 -8.470338 -8.017413 -7.563088 -7.107763 -6.652114 -6.196327 -5.936926 -5.825412 -5.711938 -5.597490 -5.483059 -5.369468 -5.256324 -5.143823 -5.034484 -5.000000 -5.000000 -4.956869 -4.892673 -4.828476 -4.764279 -4.700083 -4.635886 -4.571689 -4.507493 -4.443296 -4.379099 -4.314903 -4.250706 -4.185749 -4.120615 -4.054107 -3.929995 -3.589171 -3.248735 -2.862415 -2.335226 -1.811043 -1.294996 -0.873095 -0.571474 -0.414885 -0.283263 -0.151642 -0.005769 0.733425 1.615563 2.495099 1.878724 1.262348 0.847325 0.929313 1.011301 1.093289 1.175276 1.257264 1.339252 1.421240 1.503227 1.585215 1.666390 1.690000 1.690000 1.760633 2.004428 2.266459 2.528490 2.790522 3.052553 3.256013 3.312572 3.346706 3.269833 3.185199 2.247806 -0.238456 2.312248 2.847638 6.572579 10.185413 11.608899 12.987994 14.223162 15.130741 15.964739 16.753231 17.494109 18.076558 18.639128 19.365190 20.363408 21.803980 23.117405 24.175548 24.930631 25.548544 26.067070 26.695415 27.478126 28.387166 29.340554 29.866660 29.817085 29.673134 29.526558 29.384341 29.253549 29.158703 29.110192 29.168212 29.126338 28.862501 28.487465 28.068914 27.675141 27.322629 27.042645 26.931633 26.997965 27.211878 27.522083 27.828608 28.085049 28.271575 28.458102 28.644629 28.831156 29.017683 29.205697 29.473783 29.789260 30.496361 31.993650 33.501850 35.050442 36.734566 38.515995 40.626082 43.833273 47.039887 50.336290 54.583297 58.818611 62.099090 65.009588 67.922466 70.909434 74.095430 77.285897 80.217771 81.694540 83.153908 84.579526 85.960398 87.269001 88.462989 89.568722 90.574528 91.537401 92.653596 93.910923 95.226442 96.638729 98.102364 99.581511 100.647687 101.517049 102.337449 103.126234 103.895916 104.623899 105.255518 105.694831 106.025235 106.336975 106.634321 106.734439 106.506693 106.148451 105.711238 105.188861 104.610067 103.858365 103.091079 102.349449 101.589241 100.741101 99.597527 97.545260 95.756198 94.212264 92.491728 90.424121 88.416384 86.428227 84.571491 82.871781 81.317389 79.410209 76.814093 74.464451 70.986390 61.735645 52.630593 50.000000 54.494816 62.263242 64.000000 64.000000 64.000000 64.000000 62.119323 58.135072 54.325839 50.562184 50.000000 50.000000 53.537964 57.413941 60.686850 62.384801
-20.813246 -20.704388 -20.595531 -20.486674 -20.377816 -20.268959 -20.160102 -20.051243 -19.942386 -19.646216 -19.230207 -18.829973 -18.809999 -18.809999 -18.664989 -18.540803 -18.646741 -18.752679 -18.853872 -18.581746 -18.381176 -18.304933 -18.228690 -18.152448 -18.076205 -17.999963 -17.923721 -17.854534 -17.861195 -17.869067 -17.877286 -17.885505 -17.893725 -17.846827 -17.603490 -17.364143 -17.125799 -16.887455 -16.649111 -16.410767 -16.172424 -15.934080 -15.695736 -15.457392 -15.219048 -14.980705 -14.742361 -14.504367 -14.266518 -14.028669 -13.769033 -13.299115 -12.770364 -12.237831 -11.729888 -11.323966 -11.066997 -10.865467 -10.634857 -10.358188 -10.077177 -9.796166 -9.588855 -9.362605 -8.953925 -8.543442 -8.093291 -7.640507 -7.187724 -6.734941 -6.282158 -5.961133 -5.848386 -5.735555 -5.622822 -5.510037 -5.398750 -5.290659 -5.181715 -5.074831 -5.001415 -5.000000 -4.958320 -4.894124 -4.829927 -4.765730 -4.701534 -4.637337 -4.573140 -4.508473 -4.445471 -4.383869 -4.317017 -4.248934 -4.181624 -4.114251 -4.045866 -3.881031 -3.533487 -3.187590 -2.752258 -2.215042 -1.687728 -1.161738 -0.799298 -0.513463 -0.251117 -0.119496 0.103412 0.944686 1.809685 2.566395 2.847448 2.231072 1.614697 1.037023 1.084206 1.166194 1.248181 1.330169 1.412157 1.494145 1.576132 1.658120 1.690000 1.690000 1.690000 1.708728 1.788530 1.917528 2.179559 2.441590 2.703621 2.958943 3.034653 3.086966 3.139279 3.191592 3.203406 2.703919 -0.028557 2.019027 2.282580 5.746906 10.101825 11.450569 12.706532 13.858666 14.718489 15.492338 16.199282 16.749116 17.218751 17.856694 18.616228 19.566231 20.754789 21.925141 22.827429 23.456238 23.876450 24.369310 25.058514 25.932714 26.962748 28.111517 28.878254 28.989444 28.848691 28.700542 28.555395 28.420739 28.368629 28.440099 28.583801 28.583028 28.399472 28.054488 27.658390 27.244870 26.873381 26.581301 26.461956 26.573827 26.860152 27.166712 27.456833 27.778334 28.057921 28.244449 28.430976 28.657008 28.949047 29.208445 29.543220 29.888246 31.080906 32.584047 34.083744 35.580305 37.119237 38.730188 40.806136 43.996363 47.194403 50.514470 54.750948 58.941664 62.140352 65.030278 67.917948 70.877937 74.021074 77.133664 80.078758 81.486856 82.844778 84.152347 85.378788 86.520804 87.582312 88.561975 89.492157 90.495090 91.709650 93.043043 94.471929 95.929664 97.386061 98.843040 100.188236 101.015152 101.826039 102.616402 103.364034 104.074266 104.553538 104.914730 105.253516 105.547669 105.832536 105.890782 105.615199 105.260037 104.826431 104.305580 103.664397 102.901701 102.101885 101.303976 100.554950 99.524621 97.632277 95.605551 93.640584 92.048989 90.571461 89.002449 87.137770 85.180867 83.218402 81.382461 79.347325 75.926146 73.163565 70.390360 65.368548 57.858750 50.553525 50.000000 56.582581 62.331615 64.000000 64.000000 64.000000 63.357695 59.973991 56.236963 52.370508 49.252542 48.725510 49.435598 52.429765 55.376363 56.904801 56.722514
-20.850297 -20.741438 -20.632581 -20.523724 -20.414866 -20.306009 -20.197152 -20.088295 -19.901683 -19.501017 -19.094253 -18.809999 -18.809999 -18.755831 -18.604587 -18.704965 -18.810903 -18.916841 -18.830189 -18.558203 -18.481961 -18.405718 -18.329476 -18.253233 -18.176991 -18.100748 -18.024506 -17.955214 -17.961762 -17.969565 -17.977772 -17.985991 -17.994210 -17.939828 -17.696490 -17.456640 -17.218296 -16.979952 -16.741608 -16.503264 -16.264921 -16.026577 -15.788233 -15.549889 -15.311545 -15.073201 -14.834990 -14.597141 -14.359291 -14.121442 -13.883593 -13.449355 -12.915980 -12.381869 -11.851411 -11.548569 -11.267557 -10.986546 -10.705535 -10.424524 -10.223688 -10.075650 -9.819853 -9.411174 -9.002494 -8.593814 -8.169026 -7.716243 -7.263460 -6.810677 -6.378789 -5.990700 -5.875869 -5.763616 -5.654507 -5.544979 -5.436542 -5.329593 -5.229034 -5.145739 -5.061977 -5.000000 -4.959771 -4.895575 -4.831324 -4.769252 -4.710825 -4.648499 -4.581309 -4.516457 -4.453267 -4.385557 -4.315966 -4.246519 -4.176998 -4.107410 -4.037875 -3.837253 -3.482093 -3.131042 -2.651135 -2.105011 -1.561466 -1.025113 -0.604172 -0.377350 -0.141327 0.290947 1.155947 2.020946 2.885946 3.574513 3.199797 2.583421 1.967046 1.350670 1.239098 1.321086 1.403074 1.485062 1.567049 1.649037 1.690000 1.690000 1.690000 1.690000 1.690000 1.740759 1.820561 1.900363 2.092659 2.354690 2.616721 2.756734 2.809047 2.861360 2.913673 2.965986 3.018554 3.098197 1.845497 0.370878 2.376943 4.404139 9.583911 11.117814 12.258245 13.333260 14.230829 14.865802 15.423074 15.867731 16.375195 17.023291 17.842739 18.775391 19.687907 20.608308 21.352418 21.843525 22.193629 22.714559 23.481212 24.505476 25.767949 27.037124 28.038583 28.158963 28.024577 27.880666 27.785754 27.681619 27.723153 27.842071 27.993273 28.049842 27.932550 27.586482 27.212608 26.821536 26.423916 26.094193 26.018018 26.198280 26.502128 26.804275 27.088576 27.410076 27.731358 28.034032 28.269522 28.537669 28.812027 29.111628 29.480513 29.933563 31.351110 32.892670 34.427145 35.933435 37.509366 39.093260 41.277763 44.355426 47.497652 50.884086 55.056139 59.097661 62.224438 65.092288 67.945974 70.839462 73.862857 76.680743 79.451575 81.018186 82.253027 83.427693 84.523197 85.548092 86.520608 87.474384 88.467350 89.551138 90.840631 92.272228 93.713365 95.138685 96.526147 97.971991 99.480971 100.541824 101.332849 102.120927 102.857747 103.376757 103.779463 104.146714 104.485073 104.815869 105.099084 105.081803 104.767130 104.410279 103.960709 103.387490 102.698672 101.963761 101.155216 100.332511 99.071659 97.506421 95.692262 93.685371 91.629871 89.883111 88.728168 87.464683 85.908383 84.108360 82.022814 79.793761 75.012602 70.754428 67.049194 62.917236 58.208024 53.211247 50.000000 50.000000 56.514625 61.151322 63.665660 64.000000 63.406314 61.130205 57.918450 54.437046 50.730220 47.022725 46.696145 47.824375 50.145456 52.401267 52.546757 50.439744
-20.887347 -20.778490 -20.669632 -20.560774 -20.451917 -20.343059 -20.234202 -20.121419 -19.756484 -19.355817 -18.955151 -18.809999 -18.809999 -18.672903 -18.763189 -18.869127 -18.975065 -19.058290 -18.758328 -18.658988 -18.582746 -18.506503 -18.430261 -18.354018 -18.277776 -18.201534 -18.125291 -18.055894 -18.062328 -18.070099 -18.078257 -18.086477 -18.094697 -18.032828 -17.789490 -17.549136 -17.310793 -17.072449 -16.834105 -16.595761 -16.357417 -16.119074 -15.880730 -15.642386 -15.404042 -15.165698 -14.927763 -14.689913 -14.452064 -14.214215 -14.029196 -13.798607 -13.066411 -12.508070 -11.973452 -11.614904 -11.333893 -11.052882 -10.858522 -10.710484 -10.562445 -10.277102 -9.868422 -9.459742 -9.051063 -8.642383 -8.233704 -7.791979 -7.339196 -6.901728 -6.480601 -6.062015 -5.908337 -5.799321 -5.692648 -5.585480 -5.478442 -5.385285 -5.299572 -5.216356 -5.125585 -5.031881 -4.977276 -4.916161 -4.855133 -4.792447 -4.725279 -4.655819 -4.586348 -4.517029 -4.448171 -4.379106 -4.309630 -4.240881 -4.172216 -4.103533 -4.034264 -3.799130 -3.433256 -3.069383 -2.543088 -1.978185 -1.414413 -0.880040 -0.419739 -0.095132 0.522001 1.421091 2.296520 3.157736 4.018951 4.209010 3.531789 2.935770 2.319394 1.703019 1.393991 1.475979 1.557967 1.639954 1.690000 1.690000 1.690000 1.690000 1.690000 1.690000 1.695422 1.772790 1.852592 1.932395 2.018530 2.267790 2.478255 2.531128 2.583441 2.636338 2.717915 2.821598 2.929742 3.020597 2.874076 -0.055459 2.592621 2.763902 7.711106 10.609345 11.727442 12.718513 13.481946 14.074523 14.533641 14.937978 15.486932 16.167576 16.984838 17.804947 18.599494 19.302960 19.835969 20.182505 20.506792 21.083926 21.951502 23.186035 24.607823 26.018165 26.935294 27.313571 27.226129 27.094887 27.136071 27.084082 27.205170 27.324466 27.472074 27.571460 27.418820 27.110084 26.741585 26.368686 25.986369 25.784287 25.768063 25.815055 26.145671 26.422297 26.720318 27.027760 27.334370 27.612348 27.945478 28.210475 28.491932 28.799423 29.215640 29.730467 30.861653 32.401626 34.007437 35.587681 37.365501 39.345254 41.951949 44.889569 47.874091 51.241558 55.261294 59.243486 62.316010 65.153747 67.980599 70.833941 73.675413 76.129279 78.413931 80.299660 81.432242 82.491300 83.495827 84.475514 85.457370 86.491917 87.619994 88.818485 90.047712 91.462235 92.842265 94.186638 95.569437 97.048736 98.571509 100.068842 100.885610 101.643940 102.183317 102.583754 102.959940 103.336523 103.716692 104.089310 104.366832 104.302650 103.943903 103.541327 103.033722 102.477779 101.778869 101.017174 100.223592 98.828044 97.239561 95.627972 93.890704 91.881390 89.867794 88.598698 87.321598 85.989260 84.756927 83.285561 81.247146 77.484536 71.934721 66.422863 61.680017 56.978639 52.413694 50.000000 50.000000 50.402892 55.540485 59.473101 61.387497 61.795586 61.038375 58.747941 55.508372 52.284892 47.791651 43.016198 43.540919 45.341189 47.162363 48.263489 47.050308 47.645897
-20.924397 -20.815540 -20.706683 -20.597825 -20.488967 -20.380110 -20.271252 -20.011950 -19.611284 -19.210618 -18.895577 -18.809999 -18.754679 -18.821412 -18.927350 -19.033288 -19.139226 -19.000956 -18.836016 -18.759773 -18.683531 -18.607289 -18.531046 -18.454804 -18.378561 -18.302319 -18.226076 -18.156574 -18.162895 -18.170666 -18.178744 -18.186963 -18.195182 -18.125829 -17.882491 -17.641633 -17.403290 -17.164946 -16.926602 -16.688257 -16.449913 -16.211571 -15.973226 -15.734883 -15.496539 -15.258385 -15.020536 -14.782686 -14.544837 -14.327638 -14.274695 -14.259189 -13.586910 -12.841108 -12.117537 -11.682491 -11.493356 -11.345317 -11.197279 -11.049240 -10.734350 -10.325671 -9.916991 -9.508311 -9.099632 -8.690952 -8.282272 -7.867378 -7.424511 -7.008675 -6.606636 -6.206810 -5.948928 -5.841277 -5.733773 -5.630369 -5.540866 -5.451118 -5.363791 -5.269579 -5.175875 -5.082171 -5.000377 -4.941515 -4.874466 -4.807418 -4.740369 -4.673320 -4.606271 -4.539222 -4.472173 -4.405124 -4.338075 -4.271625 -4.199745 -4.115577 -4.031294 -3.759235 -3.379408 -2.993973 -2.421060 -1.842542 -1.272533 -0.592322 -0.095832 0.439159 1.588056 2.539769 3.438859 4.315027 5.150810 4.731990 4.048270 3.364550 2.680831 2.055367 1.556968 1.630871 1.690000 1.690000 1.690000 1.690000 1.690000 1.690000 1.690000 1.690000 1.725019 1.804821 1.884623 1.964426 2.044228 2.179860 2.254527 2.341776 2.433113 2.488057 2.531337 2.574617 2.617897 2.735200 3.062680 0.618577 1.334657 2.463456 5.596302 10.001405 11.116104 11.970102 12.625839 13.169724 13.593802 14.010654 14.583952 15.282815 15.964597 16.694422 17.400787 18.031172 18.517140 18.848631 19.168186 19.646735 20.419219 21.750625 23.353285 24.850918 26.028216 26.458930 26.382482 26.331474 26.471575 26.539922 26.683586 26.806795 26.953533 27.052438 26.925432 26.633238 26.268576 25.899502 25.538878 25.248241 25.232018 25.410280 25.735236 26.033363 26.311230 26.589633 26.862785 27.146876 27.461274 27.743667 28.033014 28.381552 28.805647 29.367977 29.934569 31.275920 32.976353 34.851915 37.045044 39.495617 42.337299 45.261357 48.198437 51.528938 55.442042 59.374983 62.365418 65.166886 67.968663 70.705082 73.124663 75.310134 77.319011 79.127289 80.445524 81.434629 82.426472 83.452682 84.534147 85.707068 86.924328 88.143391 89.323644 90.499509 91.783781 93.142041 94.584013 96.103415 97.694225 99.331753 100.435514 100.981439 101.389668 101.765066 102.138709 102.516100 102.897868 103.279503 103.599215 103.512810 103.121686 102.668964 102.180684 101.580983 100.886914 100.103061 98.591781 96.984424 95.415468 93.840510 92.148576 90.255026 88.892082 87.620294 86.306270 84.990904 83.687870 82.322987 80.726379 76.619586 70.546553 63.492485 57.434843 51.958244 50.000000 50.000000 50.000000 51.021482 55.034594 57.951833 59.030185 59.075685 57.962006 55.507609 52.536499 49.471895 44.735661 40.000000 39.948647 41.525708 42.283111 41.436264 40.615985 45.538195
-20.961447 -20.852590 -20.743733 -20.634875 -20.526018 -20.417161 -20.266827 -19.866751 -19.466084 -19.109478 -18.959223 -18.816760 -18.879636 -18.985574 -19.091512 -19.197450 -19.247198 -19.013044 -18.936801 -18.860559 -18.784316 -18.708074 -18.631831 -18.555589 -18.479346 -18.403104 -18.326862 -18.257255 -18.263462 -18.271233 -18.279230 -18.287449 -18.295668 -18.218829 -17.975491 -17.734129 -17.495787 -17.257443 -17.019099 -16.780754 -16.542410 -16.304067 -16.065724 -15.827379 -15.589047 -15.351158 -15.113309 -14.875460 -14.645091 -14.526461 -14.521640 -14.516818 -14.121013 -13.375212 -12.616796 -11.980151 -11.832112 -11.684074 -11.536036 -11.191599 -10.782919 -10.374240 -9.965560 -9.556880 -9.148201 -8.739521 -8.360192 -8.064442 -7.746680 -7.341191 -6.935702 -6.530213 -5.997392 -5.882562 -5.783137 -5.691945 -5.602582 -5.507278 -5.413574 -5.319870 -5.226166 -5.132139 -5.035774 -4.976609 -4.909560 -4.842511 -4.775462 -4.708413 -4.641364 -4.574315 -4.507941 -4.442663 -4.361286 -4.277141 -4.192367 -4.107505 -4.021720 -3.713030 -3.326994 -2.908029 -2.308115 -1.712962 -1.129135 -0.059572 0.303096 0.838975 1.916173 3.083864 4.251555 5.402570 5.931042 5.244187 4.547765 3.851085 3.140712 2.424924 1.817406 1.690000 1.690000 1.690000 1.690000 1.690000 1.690000 1.690000 1.690000 1.690000 1.757050 1.836852 1.916654 1.996457 2.083927 2.160607 1.985519 2.028799 2.072079 2.115359 2.158639 2.201919 2.252824 2.584666 2.939453 2.969861 0.096578 2.707530 3.735976 7.996852 10.371967 11.096133 11.735355 12.243251 12.628195 13.060377 13.661526 14.282029 14.858398 15.502046 16.155242 16.736578 17.211339 17.603155 18.031967 18.623132 19.330444 20.256729 21.939897 23.660406 24.876981 25.488680 25.600827 25.721979 25.879241 26.003783 26.148459 26.288417 26.433601 26.535064 26.437196 26.155107 25.797242 25.429278 25.064839 24.750893 24.698998 24.961501 25.261459 25.552585 25.838341 26.117378 26.390531 26.682073 26.966335 27.227905 27.506818 27.856300 28.367711 28.911663 29.428540 29.935529 31.665223 34.018760 36.535345 39.238213 42.231093 45.327515 48.407405 51.820759 55.620393 59.456500 62.358753 65.090486 67.798874 70.394193 72.562101 74.541600 76.260635 77.878865 79.252996 80.375701 81.454475 82.605276 83.820964 85.058158 86.266597 87.463543 88.565965 89.527854 90.656669 92.101308 93.635238 95.241874 96.909115 98.530247 99.681799 100.194057 100.570409 100.943674 101.319481 101.697138 102.079104 102.465053 102.789952 102.736172 102.334451 101.860558 101.347101 100.751384 100.026657 98.355121 96.653569 95.088501 93.536933 92.031648 90.430172 89.151380 87.947498 86.691237 85.395850 84.074143 82.752364 81.428376 80.053981 76.660361 70.388067 62.255582 55.330741 50.000000 50.000000 50.000000 50.000000 50.860847 54.391327 56.064233 56.634398 56.252690 54.667935 52.038109 49.254369 46.504252 43.281654 39.482420 38.151849 37.646821 38.208389 39.446318 40.263475 46.314116
-20.998498 -20.889640 -20.780783 -20.671926 -20.563068 -20.454211 -20.122218 -19.721551 -19.335280 -19.173125 -19.022870 -18.981367 -19.043797 -19.149735 -19.255673 -19.361611 -19.196292 -19.113829 -19.037586 -18.961344 -18.885101 -18.808859 -18.732617 -18.656374 -18.580132 -18.503889 -18.427646 -18.357934 -18.364029 -18.371800 -18.379716 -18.387935 -18.396154 -18.311829 -18.068490 -17.826626 -17.588283 -17.349940 -17.111595 -16.873251 -16.634907 -16.396564 -16.158221 -15.919876 -15.681781 -15.443931 -15.206082 -14.969561 -14.819288 -14.773405 -14.768583 -14.763761 -14.654459 -13.880536 -13.097181 -12.347991 -12.170869 -12.017595 -11.648847 -11.240167 -10.831488 -10.422808 -10.039972 -9.699544 -9.360427 -9.028450 -8.782192 -8.544200 -8.306208 -7.940537 -7.535048 -7.049782 -6.234429 -5.936208 -5.841103 -5.746357 -5.651273 -5.557569 -5.463579 -5.369414 -5.273723 -5.175611 -5.077874 -5.001333 -4.944654 -4.877605 -4.810556 -4.744258 -4.681939 -4.607085 -4.522951 -4.438301 -4.352831 -4.266536 -4.183069 -4.096136 -3.995615 -3.650206 -3.271964 -2.822484 -2.220104 -1.617935 -0.992951 0.132399 0.792820 1.344312 2.225497 3.393188 4.560878 5.456095 5.917488 5.313794 4.597970 3.882146 3.166322 2.543851 1.811581 1.746761 1.691900 1.690000 1.690000 1.690000 1.690000 1.690000 1.690000 1.709279 1.789081 1.868883 1.948686 2.079813 2.272848 2.113787 1.840051 1.656417 1.699381 1.742661 1.785941 1.829221 2.073778 2.426450 2.765845 3.087786 1.172046 1.122847 2.681628 5.798379 8.546458 10.198443 10.786620 11.261827 11.626440 12.080747 12.592672 13.100429 13.660850 14.272358 14.898605 15.460239 15.940243 16.414441 16.987462 17.701964 18.523347 19.417190 20.713028 22.434341 23.950286 24.732638 25.027066 25.261861 25.500404 25.609215 25.739151 25.817545 25.925789 26.020495 25.930112 25.679929 25.334234 24.959001 24.588830 24.254218 24.225271 24.482554 24.773639 25.063157 25.348250 25.631720 25.915190 26.197252 26.466398 26.681240 26.948284 27.387661 27.898963 28.425090 28.955067 29.521064 30.598700 33.261274 35.986574 38.742284 41.803914 45.120015 48.440827 51.976246 55.681420 59.377896 62.199798 64.816063 67.402393 69.947057 71.968048 73.845470 75.425380 76.831935 78.117385 79.430032 80.720774 81.983967 83.261173 84.501002 85.651663 86.777476 87.791739 88.763320 89.746104 91.160303 92.796270 94.487705 96.185554 97.740019 98.738949 99.314079 99.725009 100.123344 100.500952 100.879761 101.261516 101.648200 101.997407 101.982633 101.572574 101.105624 100.574562 99.881616 98.198662 96.431508 94.684758 93.071577 91.576352 90.149699 89.174506 88.110669 86.952790 85.745838 84.478142 83.166863 81.844620 80.523356 78.725826 76.271534 71.010604 63.335144 55.825062 49.944565 49.920777 49.888723 49.846540 50.494440 52.958197 53.887324 54.215178 53.715391 51.850477 49.321992 47.265830 44.940746 42.283245 38.891301 35.731299 34.367133 35.484675 38.447308 42.579971 46.981888
-21.035549 -20.926691 -20.817834 -20.708976 -20.600119 -20.377685 -19.977019 -19.578648 -19.387026 -19.236771 -19.191616 -19.189778 -19.207959 -19.313897 -19.419835 -19.420166 -19.290857 -19.214614 -19.138372 -19.062129 -18.985887 -18.909644 -18.833402 -18.757159 -18.680917 -18.604675 -18.528432 -18.458614 -18.464596 -18.472366 -18.480202 -18.488421 -18.496640 -18.404828 -18.161491 -17.919123 -17.680780 -17.442436 -17.204092 -16.965748 -16.727404 -16.489061 -16.250717 -16.012415 -15.774554 -15.536704 -15.298855 -15.132557 -15.025170 -15.020348 -15.015527 -15.010705 -14.870838 -14.336535 -13.575661 -12.794210 -12.497733 -12.106095 -11.719931 -11.378012 -11.038895 -10.699779 -10.360662 -10.021545 -9.737933 -9.499941 -9.261950 -9.023958 -8.785967 -8.535215 -8.127485 -7.392351 -6.652678 -5.990134 -5.889057 -5.794941 -5.701057 -5.607037 -5.511671 -5.413480 -5.317368 -5.225288 -5.138448 -5.055338 -4.980574 -4.918423 -4.852163 -4.769098 -4.687047 -4.608963 -4.530032 -4.440518 -4.351551 -4.263496 -4.171390 -4.077311 -3.938974 -3.578563 -3.215720 -2.745241 -2.125060 -1.514629 -0.831630 0.289719 1.211874 1.834036 2.534821 3.702512 4.603246 5.098377 5.598788 5.339369 4.623545 3.907721 3.254271 2.143591 1.902915 1.838096 1.773276 1.708456 1.690000 1.690000 1.690000 1.690000 1.690000 1.741310 1.821112 1.904589 2.084663 2.281976 2.332974 2.059238 1.785502 1.511767 1.327613 1.369963 1.413243 1.565980 1.912783 2.254598 2.596644 2.938689 3.149483 0.139273 2.827053 4.135874 6.575744 8.399054 9.651104 10.245500 10.557578 10.917412 11.341234 11.836111 12.397936 13.013537 13.649238 14.256042 14.772600 15.354626 16.080436 16.938662 17.877531 18.889814 19.981340 21.598697 23.116805 24.229632 24.603772 24.917555 25.112639 25.249039 25.369472 25.406294 25.455720 25.444652 25.338448 25.151800 24.868777 24.502900 24.122567 23.912964 23.901929 23.994912 24.284710 24.572992 24.858159 25.141628 25.417947 25.673731 25.918656 26.098988 26.427482 26.895942 27.418216 28.009145 28.620751 29.273812 30.010116 32.676088 35.513802 38.365247 41.519770 44.955296 48.384419 51.894372 55.468461 59.012857 61.839166 64.380624 66.916792 69.452672 71.421916 73.089397 74.528825 75.874491 77.264954 78.739129 80.243713 81.556701 82.839208 84.079053 85.121803 86.123510 87.159318 88.188528 89.201259 90.343758 92.052994 93.766074 95.386759 96.787334 97.889379 98.414848 98.825574 99.236933 99.651321 100.060439 100.443677 100.830040 101.168727 101.203470 100.823142 100.358616 99.561674 97.954295 96.254524 94.490709 92.726420 91.040648 89.740371 88.959615 88.087967 87.090509 85.969027 84.789247 83.552429 82.256278 80.936811 79.407427 77.399401 75.393938 71.904110 65.657813 59.640564 50.405626 49.141149 48.822557 48.770447 49.537513 50.945582 51.581493 51.739550 51.169236 49.512851 47.496456 45.668734 43.770196 41.482147 38.141292 33.243191 30.848609 32.223857 37.075531 43.669958 48.630499
-21.072599 -20.963742 -20.854884 -20.746027 -20.620667 -20.232486 -19.831818 -19.600927 -19.450672 -19.406228 -19.396344 -19.398189 -19.400035 -19.478058 -19.583996 -19.467884 -19.391642 -19.315399 -19.239157 -19.162914 -19.086672 -19.010430 -18.934187 -18.857944 -18.781702 -18.705459 -18.629216 -18.559294 -18.565163 -18.572933 -18.580719 -18.588907 -18.597126 -18.497829 -18.254491 -18.011635 -17.773277 -17.534933 -17.296589 -17.058245 -16.819901 -16.581558 -16.343214 -16.105176 -15.867327 -15.629478 -15.445826 -15.310938 -15.272114 -15.267293 -15.262471 -15.297450 -14.974285 -14.609355 -13.993575 -13.237966 -12.717363 -12.378247 -12.039130 -11.700013 -11.360897 -11.021780 -10.697219 -10.455683 -10.217691 -9.979700 -9.741708 -9.503717 -9.265725 -9.003530 -8.536528 -7.772632 -7.014272 -6.252416 -5.939010 -5.844553 -5.749542 -5.652748 -5.557260 -5.461308 -5.373350 -5.289245 -5.211008 -5.138105 -5.051398 -4.960128 -4.881942 -4.799306 -4.716281 -4.625867 -4.533959 -4.442426 -4.349906 -4.256580 -4.163514 -4.066551 -3.889047 -3.534910 -3.178586 -2.683619 -2.050892 -1.417382 -0.678867 0.299336 1.305395 2.283475 2.844145 3.757468 4.257879 4.758290 5.258701 5.364944 4.649120 3.929826 2.784828 2.059070 1.994250 1.929430 1.864611 1.799791 1.734971 1.690000 1.690000 1.690000 1.695687 1.773341 1.892202 2.089514 2.286826 2.475391 2.278425 2.004690 1.730954 1.457218 1.183482 0.998808 1.066219 1.401306 1.749107 2.095891 2.434385 2.772879 3.106065 1.659758 0.795478 2.969669 5.159465 6.847075 8.086410 8.854793 9.336005 9.673857 9.992822 10.451207 11.052983 11.741157 12.442335 13.083216 13.714270 14.484956 15.385747 16.378774 17.445311 18.566683 19.720475 21.172813 22.611548 23.727227 24.256865 24.599799 24.745815 24.930759 24.988185 24.995043 24.985615 24.891459 24.740883 24.571107 24.383172 24.044718 23.630522 23.328747 23.317711 23.509993 23.796506 24.082828 24.368032 24.646232 24.866934 25.112221 25.324926 25.533149 25.903563 26.402899 26.997821 27.666865 28.340890 29.006846 29.641573 31.172629 34.315644 37.937737 41.709232 44.948250 48.238092 51.598771 54.990924 58.325969 61.230068 63.719306 66.217981 68.728809 70.787184 72.273467 73.696855 75.137007 76.646296 78.272994 79.982406 81.279240 82.481172 83.607555 84.658260 85.688443 86.729213 87.749381 88.753555 89.749171 91.260385 92.895220 94.429973 95.814470 96.855879 97.509040 97.926542 98.338250 98.753965 99.171039 99.594009 100.010191 100.365973 100.440780 100.061824 98.903645 97.511553 95.967555 94.327423 92.573598 90.781934 89.544496 88.736913 87.887492 87.031573 86.090151 85.051330 83.897491 82.647652 81.345164 80.018291 78.212093 76.728157 75.110743 72.658090 68.470850 63.438110 57.472562 49.504523 48.236925 46.520408 44.465057 45.546848 47.573020 48.317809 47.960073 46.987844 45.360762 43.722362 42.148261 40.268821 36.600948 31.034232 30.000000 30.000000 36.038618 44.219080 52.144319
-21.109649 -21.000792 -20.891934 -20.783077 -20.487952 -20.087286 -19.814828 -19.664574 -19.620840 -19.608132 -19.604755 -19.606601 -19.608446 -19.642220 -19.644912 -19.568670 -19.492427 -19.416185 -19.339942 -19.263700 -19.187457 -19.111215 -19.034972 -18.958730 -18.882487 -18.806244 -18.730002 -18.659974 -18.665730 -18.673500 -18.681271 -18.689393 -18.697612 -18.590829 -18.347491 -18.104385 -17.865774 -17.627430 -17.389086 -17.150742 -16.912398 -16.674054 -16.435798 -16.197949 -15.960100 -15.759095 -15.624206 -15.523880 -15.519058 -15.514236 -15.537934 -15.475144 -15.077732 -14.712739 -14.346306 -13.650614 -13.039365 -12.700248 -12.361131 -12.022015 -11.682898 -11.411425 -11.173433 -10.935441 -10.697450 -10.456379 -10.149452 -9.794746 -9.482938 -9.198267 -8.913597 -8.268798 -7.417962 -6.626080 -5.988931 -5.892606 -5.797118 -5.701024 -5.608119 -5.523730 -5.445493 -5.367256 -5.297721 -5.233234 -5.133419 -5.011799 -4.917622 -4.827185 -4.735388 -4.642052 -4.548055 -4.450229 -4.351623 -4.252907 -4.155183 -4.058551 -3.845421 -3.494015 -3.140967 -2.631448 -2.021038 -1.408231 -0.599172 0.445508 1.414167 2.358414 2.980561 3.464408 3.932644 4.418203 4.918614 5.319767 4.590972 3.428660 2.296548 2.150405 2.085585 2.020765 1.955945 1.891126 1.826306 1.761486 1.698799 1.690000 1.726862 1.897053 2.094365 2.291677 2.488989 2.497613 2.223877 1.950141 1.676405 1.402669 1.128934 0.868776 0.946354 1.258453 1.589071 1.927185 2.265294 2.603434 2.941549 3.298226 0.197719 2.635315 4.135643 5.733405 6.879759 7.722931 8.223993 8.630328 9.042679 9.431613 9.993435 10.437285 11.263002 12.063903 12.898127 13.865937 14.928150 16.049690 17.215393 18.389759 19.567041 20.844853 21.992763 22.941181 23.860505 24.239067 24.436475 24.590971 24.605366 24.583793 24.520443 24.359173 24.151039 23.964100 23.792032 23.501698 23.096965 22.768201 22.754937 23.024385 23.306612 23.592921 23.862768 24.113678 24.306934 24.530087 24.736074 25.011546 25.438853 25.972626 26.644266 27.340893 28.037045 28.674304 29.263668 29.828562 33.078672 39.119600 42.402533 45.227694 48.179126 51.282561 54.446814 57.426737 60.292672 62.728184 65.165541 67.620212 70.035912 71.497285 72.952546 74.515000 76.086633 77.872230 79.791879 81.026615 82.159030 83.242797 84.287054 85.310904 86.311450 87.274380 88.193361 89.145017 90.227483 91.721454 93.230380 94.709818 96.002958 96.609574 97.026753 97.447165 97.859232 98.278860 98.706617 99.090696 99.267167 99.057603 97.962018 96.744552 95.435903 93.955065 92.365552 90.694619 89.471318 88.635021 87.812069 86.948152 86.039026 85.140341 84.157180 83.040223 81.807761 80.503641 79.204981 77.767563 76.385229 74.963081 73.086092 70.535848 66.841062 62.846662 56.140178 48.658944 45.367053 41.046819 40.000000 41.144411 43.199402 44.072377 43.990044 42.790759 41.310675 39.842680 37.281074 33.998155 29.970834 30.000000 30.000000 36.097782 44.714017 52.650677
-21.146700 -21.037842 -20.928985 -20.743420 -20.342753 -20.028729 -19.878563 -19.835453 -19.822744 -19.811519 -19.813166 -19.815012 -19.816857 -19.814885 -19.745697 -19.669455 -19.593212 -19.516970 -19.440727 -19.364484 -19.288242 -19.211999 -19.135757 -19.059514 -18.983272 -18.907029 -18.830787 -18.760654 -18.766296 -18.774067 -18.781838 -18.789878 -18.798098 -18.683829 -18.440492 -18.197159 -17.958270 -17.719927 -17.481583 -17.243239 -17.004895 -16.766550 -16.528572 -16.290722 -16.072365 -15.937476 -15.802587 -15.770823 -15.766002 -15.778420 -15.843835 -15.578650 -15.181180 -14.816122 -14.451973 -14.052791 -13.361366 -13.022249 -12.683133 -12.367166 -12.129175 -11.891183 -11.629072 -11.287177 -10.932471 -10.577766 -10.251769 -9.967099 -9.682429 -9.397758 -9.113088 -8.812880 -8.014211 -7.163375 -6.303628 -5.941308 -5.844734 -5.758219 -5.679979 -5.601742 -5.523505 -5.445268 -5.389116 -5.320915 -5.222490 -5.066106 -4.966501 -4.873247 -4.779992 -4.686738 -4.593484 -4.500229 -4.406975 -4.313721 -4.214116 -4.067123 -3.798208 -3.444688 -3.091948 -2.540788 -1.921422 -1.307296 -0.523897 0.431139 1.260827 1.961284 2.787285 3.329255 3.793048 4.256842 4.720635 4.767891 4.072492 2.910180 2.306560 2.241740 2.176920 2.112100 2.047280 1.982461 1.917641 1.851893 1.782830 1.715576 1.901903 2.099215 2.296528 2.493840 2.675207 2.443064 2.169328 1.895592 1.621857 1.358886 1.109192 0.859499 0.958128 1.259937 1.561747 1.863556 2.165365 2.467175 2.780703 3.121687 2.090167 0.802250 3.356987 4.842375 5.990805 6.713613 7.282007 7.791802 8.243692 8.934548 9.664918 10.000000 10.303094 11.309201 12.395184 13.521295 14.675475 15.848942 17.045508 18.229272 19.312757 20.264337 21.209153 22.126366 23.045051 23.903392 24.115631 24.222048 24.222292 24.175022 24.059394 23.774959 23.433069 23.187404 23.025811 22.899635 22.530086 22.193121 22.253632 22.529038 22.816893 23.069178 23.295423 23.471344 23.686717 23.931533 24.164483 24.513449 25.041062 25.653519 26.324735 27.026073 27.713155 28.352094 28.982189 29.661773 33.625334 40.396398 43.004639 45.634814 48.358650 51.211949 54.086913 56.623840 59.086613 61.396277 63.818519 66.277263 68.670761 70.576431 72.115225 73.779351 75.401729 77.251583 79.399258 80.794585 81.849662 82.875394 83.868824 84.825530 85.726239 86.548290 87.380026 88.310997 89.259878 90.373327 91.931525 93.552306 94.839348 95.643766 96.136495 96.561393 96.992439 97.384988 97.773577 98.069195 97.806658 96.820157 95.643566 94.491488 93.305538 91.932176 90.370139 89.312391 88.491909 87.693827 86.914289 86.084300 85.196015 84.281700 83.268871 82.186673 81.014398 79.768009 78.582711 77.310967 75.964249 74.663451 72.844630 70.579291 67.780672 65.162688 62.026484 55.604545 48.895266 43.607326 40.000000 39.174767 39.212144 40.172387 40.686549 39.846700 37.689425 35.266966 32.763536 29.964309 28.865572 29.167498 29.663443 36.418452 44.827472 51.873001
-21.183750 -21.074893 -20.962313 -20.598220 -20.242630 -20.092602 -20.050066 -20.037356 -20.024647 -20.019732 -20.021578 -20.023423 -20.024562 -19.901882 -19.809999 -19.770240 -19.693998 -19.617755 -19.541513 -19.465270 -19.389027 -19.312785 -19.236542 -19.160299 -19.084057 -19.007815 -18.931572 -18.861334 -18.866863 -18.874634 -18.882405 -18.890364 -18.898583 -18.776830 -18.533492 -18.290154 -18.050766 -17.812424 -17.574080 -17.335736 -17.097391 -16.859194 -16.621344 -16.390176 -16.250745 -16.115856 -16.022589 -16.017768 -16.020625 -16.084320 -16.082243 -15.682156 -15.284627 -14.919506 -14.555357 -14.191208 -13.724206 -13.345798 -13.082750 -12.779606 -12.424901 -12.070196 -11.715491 -11.360786 -11.021338 -10.735931 -10.451261 -10.166591 -9.881920 -9.597250 -9.312580 -9.027909 -8.610460 -7.759624 -6.889719 -5.990887 -5.914464 -5.836227 -5.757990 -5.679753 -5.601516 -5.546292 -5.498611 -5.419860 -5.289137 -5.103921 -5.000000 -4.947521 -4.854267 -4.761012 -4.667758 -4.574504 -4.481249 -4.351128 -4.227872 -4.060160 -3.759714 -3.398283 -3.038921 -2.473895 -1.877067 -1.275499 -0.544880 0.160303 0.944590 1.727465 2.578255 3.191900 3.655693 4.119487 4.537026 3.967963 3.500365 2.488651 2.397895 2.333075 2.267773 2.199370 2.127762 2.056154 1.984546 1.912938 1.841330 1.807900 2.085029 2.301378 2.498690 2.696003 2.662251 2.388515 2.114780 1.848996 1.599303 1.349609 1.099915 0.850221 0.969903 1.271712 1.573521 1.875331 2.177140 2.478949 2.777065 3.006707 2.892833 0.402445 2.989595 4.140051 5.141360 5.907448 6.528993 7.061230 7.779511 8.509882 9.240252 9.947469 10.000000 10.925079 12.117646 13.313706 14.516962 15.728650 16.903193 18.057319 18.908386 19.612955 20.392314 21.307946 22.228605 23.037424 23.490089 23.634225 23.630763 23.510070 23.294480 22.995264 22.664538 22.401841 22.251609 22.207927 21.966630 21.866320 21.801740 22.040120 22.318773 22.518137 22.677421 22.804113 23.001544 23.251720 23.555934 24.084441 24.695483 25.341771 26.017299 26.712832 27.414405 28.143935 28.904809 29.700740 33.944558 40.424076 43.103377 45.804390 48.523025 51.193263 53.697734 55.833050 57.988453 60.025715 62.499701 64.930362 67.196836 69.246944 70.937491 72.640870 74.432683 76.402738 78.669857 80.439435 81.426047 82.376567 83.271603 84.107634 84.882782 85.643481 86.463824 87.366135 88.327326 89.349185 90.662492 92.263953 93.736457 94.626889 95.194818 95.656206 96.122451 96.460070 96.549171 96.303662 95.607235 94.496823 93.318448 92.171949 91.075714 89.907658 88.952988 88.087127 87.393645 86.658891 85.964942 85.201683 84.370648 83.462379 82.464223 81.375543 80.226197 78.954300 77.834953 76.705966 75.528913 74.337770 72.360835 70.100255 67.757138 66.128759 64.099355 60.492861 54.127225 48.184181 40.976062 38.031301 36.386891 36.128574 36.748636 35.466671 33.134115 30.671943 28.770197 27.102645 26.937166 28.207784 29.626119 36.723063 44.501267 51.139501
-21.220801 -21.111943 -20.853687 -20.468118 -20.306641 -20.264678 -20.251969 -20.239259 -20.227155 -20.228143 -20.229989 -20.231834 -20.128646 -19.974086 -19.815621 -19.809999 -19.793915 -19.718540 -19.642297 -19.566055 -19.489812 -19.413570 -19.337327 -19.261085 -19.184842 -19.108600 -19.032357 -18.962015 -18.967430 -18.975201 -18.982972 -18.990850 -18.999070 -18.869830 -18.626492 -18.383155 -18.143263 -17.904920 -17.666577 -17.428232 -17.189890 -16.951967 -16.715221 -16.564014 -16.429125 -16.294585 -16.269533 -16.266459 -16.324805 -16.390221 -16.185749 -15.785662 -15.388074 -15.022890 -14.658740 -14.294591 -13.927005 -13.562626 -13.207920 -12.853216 -12.498511 -12.143805 -11.795295 -11.504763 -11.220093 -10.935423 -10.650752 -10.366082 -10.081412 -9.796741 -9.512071 -9.227400 -8.942730 -8.355873 -7.461026 -6.208838 -5.990526 -5.914239 -5.836002 -5.757765 -5.684759 -5.647559 -5.594817 -5.508336 -5.327538 -5.148530 -5.000000 -5.000000 -4.928541 -4.835286 -4.742032 -4.633940 -4.540876 -4.395644 -4.238830 -4.060643 -3.742919 -3.370927 -2.991356 -2.429065 -1.860802 -1.305829 -0.722087 -0.051820 0.667921 1.518435 2.369225 3.060088 3.518338 3.982131 3.801036 3.168035 2.615336 2.541756 2.472694 2.401086 2.329478 2.257870 2.186262 2.114654 2.043046 1.971438 1.899830 1.960596 2.247435 2.513347 2.700853 2.865036 2.607703 2.339363 2.089413 1.839719 1.590025 1.340331 1.090637 0.840944 0.981678 1.283487 1.585296 1.887105 2.188915 2.464143 2.685823 2.907350 2.997840 0.225290 3.128705 3.537933 4.514483 5.265628 5.902666 6.624475 7.354846 8.085216 8.815587 9.545957 10.000000 10.776781 12.001143 13.221179 14.436824 15.644227 16.720982 17.618297 18.330082 19.006259 19.683084 20.488620 21.406775 22.219893 22.592417 22.738043 22.751119 22.658623 22.464451 22.202707 21.884684 21.612513 21.457078 21.426866 21.333359 21.256985 21.272328 21.511338 21.756056 21.911097 22.008863 22.119985 22.316704 22.584447 23.031973 23.670586 24.340976 25.018834 25.750795 26.534069 27.337966 28.151668 28.996262 29.816842 34.571770 40.359346 43.128988 45.918412 48.725353 51.153053 53.324618 55.318061 57.254600 59.171583 61.386064 63.753609 65.840403 67.711829 69.449633 71.189344 73.146054 75.167928 77.412558 79.776587 80.831319 81.681637 82.453627 83.175419 83.936196 84.673897 85.479972 86.400805 87.381417 88.454216 89.573153 90.929119 92.321198 93.537806 94.238968 94.597238 94.903437 95.133341 95.053970 94.508728 93.466618 92.241244 91.017790 89.882113 89.012326 88.214700 87.457651 86.751576 86.134523 85.568716 84.933610 84.260076 83.490754 82.647541 81.715632 80.676289 79.397679 77.966302 76.747043 75.747373 74.794703 73.821512 71.863335 69.675920 67.960077 66.419451 64.485590 61.284052 56.477341 51.344316 44.173834 37.511463 33.472428 31.914771 32.576595 31.308104 29.327162 27.639074 25.906849 24.297260 24.134174 26.199177 30.338417 36.906781 43.240871 49.110734
-21.257851 -21.108240 -20.710981 -20.520680 -20.479290 -20.466582 -20.453871 -20.441162 -20.434709 -20.436555 -20.438400 -20.353641 -20.204091 -20.046095 -19.876527 -19.809999 -19.809999 -19.808071 -19.743083 -19.666840 -19.590597 -19.514355 -19.438112 -19.361870 -19.285628 -19.209385 -19.133143 -19.062694 -19.067997 -19.075768 -19.083538 -19.091345 -19.099555 -18.962830 -18.719493 -18.476155 -18.235760 -17.997417 -17.759074 -17.520729 -17.282589 -17.044740 -16.877283 -16.742395 -16.607506 -16.521299 -16.516477 -16.565290 -16.630705 -16.669617 -16.289255 -15.889168 -15.491521 -15.126274 -14.762124 -14.394952 -14.007761 -13.636235 -13.281530 -12.926825 -12.573756 -12.273595 -11.988925 -11.704255 -11.419584 -11.134914 -10.850243 -10.565573 -10.280903 -9.996233 -9.711562 -9.426892 -9.142222 -8.857551 -7.900288 -6.634276 -6.000000 -5.990348 -5.914013 -5.835776 -5.794727 -5.764120 -5.715261 -5.555640 -5.426263 -5.333206 -5.140920 -5.026012 -4.996311 -4.908612 -4.828211 -4.723555 -4.596421 -4.453482 -4.262389 -4.058991 -3.727646 -3.349475 -2.957075 -2.425362 -1.942647 -1.457714 -0.955360 -0.301624 0.460639 1.309405 2.160195 2.972844 3.380983 3.634108 3.001108 2.715120 2.644322 2.551859 2.483983 2.443946 2.387978 2.316370 2.244762 2.173154 2.101546 2.029938 1.959498 2.123002 2.409841 2.696681 2.907538 2.830344 2.579523 2.329829 2.080135 1.830441 1.580748 1.331054 1.081360 0.833709 0.993452 1.295261 1.597071 1.898880 2.143509 2.364751 2.587207 2.805343 3.023216 1.344584 2.509313 3.081725 3.997650 4.744502 5.469439 6.199810 6.930180 7.660550 8.390921 9.121291 9.851662 10.793217 12.001559 13.216537 14.396375 15.464546 16.351007 17.086818 17.742351 18.400121 19.092573 19.766908 20.594401 21.322464 21.696760 21.841715 21.868715 21.802805 21.623943 21.393748 21.098619 20.820710 20.655821 20.613161 20.628106 20.647649 20.760225 20.945317 21.110544 21.225602 21.305442 21.413895 21.635769 21.965595 22.555030 23.254180 24.005844 24.805661 25.642936 26.501877 27.366366 28.236100 29.085080 29.974330 35.586517 40.852544 43.509294 46.204386 48.982831 51.243466 53.171024 55.004991 56.835046 58.604355 60.409984 62.537691 64.421787 66.176933 67.885801 69.569018 71.461341 73.582959 75.870009 78.131573 80.039325 80.801892 81.477948 82.150625 82.875124 83.627403 84.491919 85.423781 86.453904 87.512715 88.571201 89.634655 90.869664 91.956408 92.683983 93.118795 93.366443 93.460861 93.338801 92.642953 91.411081 90.082658 88.980062 87.996261 87.143665 86.406069 85.788188 85.344901 84.801864 84.377492 83.856664 83.228486 82.549530 81.777693 80.924813 79.944668 78.448037 76.992383 75.640433 74.555043 73.619241 72.802706 71.303141 69.228098 67.451558 65.962621 63.911983 60.684814 56.541924 51.975666 46.240144 40.320300 32.821213 30.000000 29.597353 28.969757 27.481907 25.731213 23.995744 21.794480 21.085319 25.460010 31.439458 36.774634 42.154725 46.445628
-21.294901 -20.963954 -20.734719 -20.693903 -20.681194 -20.668484 -20.655774 -20.643162 -20.643121 -20.644966 -20.578635 -20.429086 -20.279536 -20.118104 -19.948536 -19.809999 -19.809999 -19.809999 -19.809999 -19.767625 -19.691383 -19.615140 -19.538898 -19.462655 -19.386413 -19.310170 -19.233928 -19.163375 -19.168564 -19.176334 -19.184105 -19.191877 -19.200042 -19.055831 -18.812493 -18.569155 -18.328257 -18.089914 -17.851570 -17.613243 -17.375362 -17.190553 -17.055664 -16.920774 -16.787606 -16.768242 -16.805774 -16.871191 -16.936607 -16.792847 -16.392761 -15.992674 -15.594969 -15.229657 -14.862898 -14.475893 -14.088213 -13.709844 -13.355139 -13.042427 -12.757757 -12.473087 -12.188416 -11.903746 -11.619075 -11.333849 -11.044205 -10.754561 -10.458373 -10.161384 -9.864394 -9.567404 -9.274742 -9.006370 -8.628846 -7.426772 -6.226001 -6.002237 -5.990170 -5.932351 -5.909441 -5.879427 -5.790113 -5.713913 -5.663833 -5.531734 -5.413963 -5.288175 -5.172615 -5.071145 -4.958347 -4.841871 -4.669564 -4.466634 -4.253975 -4.038882 -3.691932 -3.313083 -2.915785 -2.437424 -1.971931 -1.529322 -1.104452 -0.406430 0.372185 1.143053 1.953217 2.801955 3.243628 2.912919 2.824826 2.753513 2.682199 2.585668 2.480935 2.419086 2.379099 2.339113 2.297139 2.231654 2.160046 2.088439 2.032311 2.285408 2.572248 2.798834 2.929497 2.855719 2.577650 2.320552 2.070858 1.821164 1.571470 1.321776 1.072082 0.828895 1.005227 1.307036 1.598434 1.822423 2.042920 2.259959 2.482517 2.696376 2.913155 2.892645 1.091182 3.026656 3.584033 4.314403 5.053231 5.806476 6.584370 7.379431 8.175910 8.989836 9.811816 10.895688 12.064684 13.248502 14.342790 15.154886 15.893396 16.624393 17.253851 17.845907 18.528068 19.203328 19.847120 20.485894 20.804117 20.946864 20.985026 20.941925 20.778693 20.568336 20.300056 20.026769 19.864657 19.819116 19.890097 20.048364 20.198897 20.327499 20.439374 20.537064 20.599290 20.709694 20.971366 21.449533 22.121384 22.903848 23.756011 24.620145 25.493733 26.377383 27.269687 28.177505 29.114398 30.451356 36.969505 41.395219 43.942516 46.507897 49.110962 51.194962 52.981736 54.711414 56.376810 57.963594 59.455390 61.164444 62.942754 64.645045 66.288260 67.935312 69.693873 71.870535 74.118018 76.232701 78.100429 79.591147 80.410029 81.063764 81.772341 82.577345 83.470814 84.453651 85.460402 86.450718 87.383917 88.379160 89.425385 90.312406 90.906563 91.269351 91.455165 91.505908 91.386770 90.751559 89.553817 88.286226 87.142673 86.119263 85.251844 84.563153 84.111564 83.828035 83.394246 83.019661 82.641147 82.114007 81.524114 80.840076 80.043732 78.589983 77.124726 75.858578 74.571968 73.344692 72.359605 71.578598 70.578076 68.662135 66.689329 64.802395 62.211771 58.981529 55.264592 51.270817 46.636301 41.830288 33.770295 29.702213 28.901590 28.039933 26.519558 24.729627 22.826618 20.620133 20.000000 25.016501 31.578304 36.329451 40.864087 44.078078
-21.219421 -20.948759 -20.908515 -20.895806 -20.883097 -20.870386 -20.857678 -20.849687 -20.851532 -20.803630 -20.654080 -20.504530 -20.354981 -20.190114 -20.020546 -19.850978 -19.809999 -19.809999 -19.809999 -19.809999 -19.791849 -19.715925 -19.639683 -19.563440 -19.487198 -19.410956 -19.334713 -19.264055 -19.269131 -19.276901 -19.284672 -19.292444 -19.300528 -19.148831 -18.905493 -18.662156 -18.420754 -18.182411 -17.944067 -17.705984 -17.503822 -17.368933 -17.234044 -17.099155 -17.020008 -17.046259 -17.111675 -17.177091 -17.238912 -16.896353 -16.496267 -16.096180 -15.698416 -15.330845 -14.944025 -14.556345 -14.168703 -13.788971 -13.490952 -13.193962 -12.896973 -12.599983 -12.302993 -12.006004 -11.709014 -11.412024 -11.115035 -10.818045 -10.521056 -10.227801 -9.939667 -9.651533 -9.392370 -9.162919 -8.933469 -8.251605 -7.042675 -6.491578 -6.350980 -6.228110 -6.156150 -6.079561 -6.012877 -5.960035 -5.900812 -5.807994 -5.672806 -5.514902 -5.411037 -5.226178 -5.023906 -4.908863 -4.689435 -4.462417 -4.230421 -3.990996 -3.627707 -3.254534 -2.865560 -2.443239 -2.019887 -1.595586 -1.171095 -0.440489 0.228648 1.028667 1.828686 2.615801 3.005330 2.934016 2.862703 2.791390 2.720076 2.619477 2.514744 2.410012 2.354189 2.314203 2.274216 2.234229 2.194243 2.145750 2.160157 2.369791 2.518671 2.667552 2.783728 2.915107 2.683878 2.401055 2.118233 1.835411 1.564106 1.312499 1.062805 0.824081 1.017001 1.280407 1.501039 1.721173 1.944809 2.169457 2.377045 2.598706 2.817802 3.039009 0.251779 3.134636 3.288056 4.094644 4.899728 5.725801 6.549319 7.382405 8.243141 9.104561 9.972860 11.041043 12.132043 13.242270 14.252864 14.970024 15.612991 16.170753 16.757691 17.401880 18.044318 18.667014 19.194836 19.583264 19.894009 20.046570 20.099739 20.072590 19.914509 19.687920 19.508136 19.271380 19.110079 19.083108 19.188528 19.377621 19.539149 19.655898 19.772485 19.867349 19.915802 20.026876 20.372692 20.977667 21.765983 22.627046 23.492163 24.368237 25.237261 26.113956 27.033676 28.030834 29.097635 31.060767 37.660045 41.577744 44.032025 46.474617 48.913342 50.926232 52.565874 54.133978 55.611177 56.993643 58.348379 59.770315 61.413589 63.017484 64.583636 66.059313 67.877704 70.092685 72.264985 74.246130 75.994171 77.412580 78.708537 79.868761 80.672586 81.518027 82.445575 83.418103 84.375094 85.250309 86.058000 87.020191 87.920677 88.656266 89.167113 89.482854 89.612717 89.628702 89.514092 88.949397 87.876542 86.577491 85.338493 84.248037 83.337978 82.646827 82.240603 82.031791 81.876042 81.577828 81.302154 80.908647 80.416829 79.656621 78.366109 77.016889 75.575145 74.387300 73.305463 72.111097 71.018874 70.262953 69.211804 67.452146 65.400402 62.980651 60.027572 56.930341 53.516006 49.830184 45.895008 42.012687 35.608195 29.650067 28.518125 27.292313 25.904529 24.143331 22.299051 20.355697 20.000000 23.469916 30.306689 34.635182 38.633135 41.264668
-21.162799 -21.123127 -21.110419 -21.097709 -21.084999 -21.072290 -21.059580 -21.058098 -21.028624 -20.879074 -20.729525 -20.579975 -20.430035 -20.262123 -20.092555 -19.922572 -19.877856 -19.815232 -19.809999 -19.809999 -19.809999 -19.807320 -19.740468 -19.664226 -19.587983 -19.511741 -19.435498 -19.364736 -19.369698 -19.377468 -19.385239 -19.393011 -19.401013 -19.241832 -18.998494 -18.755156 -18.513251 -18.274907 -18.036616 -17.817091 -17.682203 -17.547313 -17.412424 -17.281257 -17.286745 -17.352160 -17.417576 -17.482992 -17.399946 -16.999859 -16.599773 -16.199686 -15.800231 -15.412479 -15.025106 -14.637733 -14.250360 -13.862987 -13.553634 -13.256645 -12.959655 -12.662665 -12.365676 -12.068686 -11.771696 -11.474707 -11.180861 -10.892727 -10.604593 -10.316459 -10.028325 -9.778370 -9.548920 -9.319470 -9.090020 -8.860569 -7.867508 -7.056461 -6.912789 -6.809905 -6.739860 -6.531843 -6.435663 -6.145557 -6.000000 -6.000000 -5.898613 -5.742202 -5.540562 -5.335798 -5.131034 -4.936861 -4.691137 -4.445553 -4.200191 -3.932810 -3.566594 -3.198814 -2.807279 -2.388850 -1.970421 -1.553128 -1.138822 -0.546343 0.021009 0.796562 1.600781 2.195812 2.841436 2.971893 2.900580 2.829267 2.756316 2.653286 2.548554 2.443821 2.339562 2.289292 2.249306 2.209319 2.169332 2.102893 1.954676 2.238509 2.387390 2.536270 2.645440 2.781655 2.794858 2.512036 2.229214 1.946392 1.663569 1.380747 1.097925 0.834169 0.980515 1.199236 1.411329 1.630852 1.854887 2.078922 2.302957 2.526991 2.751026 2.973889 3.119520 2.037136 3.064035 3.895881 4.761173 5.635939 6.499294 7.394309 8.251542 9.133161 10.132221 11.183725 12.232623 13.229107 14.092263 14.666147 15.186260 15.695362 16.247512 16.868774 17.481160 18.019015 18.339750 18.576991 18.808688 18.959440 19.044529 19.025052 18.860309 18.712611 18.687474 18.507045 18.353423 18.354734 18.497301 18.697561 18.837122 18.968798 19.142279 19.307902 19.409695 19.585990 19.884956 20.546800 21.356055 22.210800 23.100686 24.015457 24.888937 25.771327 26.756273 27.849069 29.053767 31.361595 37.228356 41.182067 43.523576 45.840556 48.143612 50.294054 51.789680 53.202465 54.516340 55.769841 57.066872 58.422184 59.785787 61.224187 62.553479 63.998172 65.896830 68.131437 70.392466 72.317977 73.973111 75.504751 76.813552 78.122228 79.382555 80.444024 81.362030 82.290408 83.154380 83.913919 84.706686 85.528765 86.323033 86.987805 87.514326 87.871864 88.020894 88.022185 87.876823 87.256628 86.227112 84.938650 83.602748 82.411573 81.423946 80.712510 80.310194 80.151930 80.142162 80.043042 79.740279 79.069544 78.291600 77.408013 76.386706 75.242589 73.960916 72.673662 71.647403 70.640644 69.427915 67.949270 66.634681 64.915080 62.912641 60.498213 57.990002 55.158510 51.927050 48.798586 46.244801 43.436652 38.649604 31.142142 28.749339 27.230910 25.637450 23.992550 21.995404 20.009575 20.000000 20.852034 26.913107 31.510159 34.712406 37.024772
-21.337740 -21.325031 -21.312321 -21.299612 -21.286902 -21.274193 -21.264664 -21.249778 -21.104069 -20.954519 -20.804970 -20.655420 -20.503690 -20.334133 -20.164370 -19.991389 -19.828172 -19.994980 -20.067825 -19.840680 -19.809999 -19.809999 -19.809999 -19.765010 -19.688768 -19.612526 -19.536283 -19.465415 -19.470264 -19.478035 -19.485806 -19.493577 -19.501500 -19.334832 -19.091494 -18.848155 -18.605747 -18.367403 -18.135261 -17.995471 -17.860582 -17.725694 -17.590805 -17.528159 -17.592645 -17.658062 -17.723477 -17.785793 -17.499162 -17.092748 -16.686335 -16.279922 -15.887504 -15.516841 -15.109942 -14.719491 -14.332118 -13.944745 -13.616316 -13.319326 -13.022337 -12.725347 -12.428358 -12.134044 -11.845787 -11.557653 -11.269519 -10.981385 -10.693251 -10.405678 -10.164370 -9.934920 -9.705470 -9.476020 -9.246570 -9.017120 -8.675873 -7.622243 -7.476566 -7.393943 -7.087076 -6.985286 -6.711013 -6.415559 -6.120104 -6.000000 -6.000000 -5.803406 -5.578861 -5.356570 -5.135137 -4.905054 -4.659486 -4.413816 -4.168578 -3.885073 -3.521699 -3.158370 -2.773265 -2.370966 -1.969020 -1.573454 -1.211385 -0.863389 -0.152527 0.587786 1.236104 1.883532 2.527959 3.009530 2.938457 2.867144 2.791828 2.687096 2.582363 2.477630 2.372897 2.270367 2.224395 2.184409 2.144422 1.650539 1.384559 2.027961 2.256108 2.399516 2.507152 2.643367 2.779582 2.623016 2.340194 2.057372 1.774550 1.491728 1.210631 1.011358 1.151811 1.375846 1.599881 1.823915 2.047950 2.271985 2.496020 2.717892 2.831811 2.934193 2.998319 1.108037 3.097891 3.434244 4.267543 5.100841 5.934140 6.767438 7.590938 8.630834 10.142719 11.127737 12.048131 12.835626 13.577052 14.210991 14.715846 15.225892 15.740513 16.292039 16.779619 17.103533 17.321250 17.513807 17.715498 17.857875 17.972906 17.958439 17.809458 17.757729 17.831681 17.734829 17.599181 17.636194 17.818144 18.010761 18.134701 18.305095 18.557688 18.786325 18.956698 19.236056 19.607220 20.022757 20.840354 21.723454 22.612841 23.540173 24.468442 25.406611 26.487190 27.660443 28.913254 31.006085 36.013542 40.230955 42.486268 44.705862 46.905799 49.069607 50.756344 52.020926 53.218909 54.409897 55.623617 56.935230 58.231905 59.337455 60.236483 61.756030 63.777037 65.993872 68.315656 70.523770 72.240279 73.715694 75.156626 76.570368 77.832936 79.074912 80.206320 81.059517 81.781744 82.452984 83.204459 83.954607 84.694244 85.367409 85.924050 86.345289 86.435234 86.422394 86.290337 85.727915 84.749509 83.425831 81.975862 80.642340 79.546076 78.661907 77.975620 77.427417 77.117760 76.766714 76.280748 75.843421 75.462695 74.960938 74.230469 73.274558 72.188395 70.951506 69.845605 68.896986 67.619513 65.823853 64.138219 62.340159 60.317074 58.427369 56.287851 53.740730 50.780159 48.735753 46.952046 45.166368 41.982974 35.768492 29.466731 27.609251 25.454933 23.415575 20.932650 20.000000 20.000000 20.000000 22.681712 27.007125 29.938710 31.744549
-21.539643 -21.526934 -21.514224 -21.501515 -21.488805 -21.476096 -21.468020 -21.329064 -21.179514 -21.029965 -20.880415 -20.730866 -20.575710 -20.406053 -20.233285 -20.060118 -19.886950 -19.917903 -20.112103 -20.302947 -20.142956 -19.892410 -19.809999 -19.809999 -19.789554 -19.713311 -19.637068 -19.566095 -19.570831 -19.578602 -19.586372 -19.594144 -19.601985 -19.427832 -19.184493 -18.941156 -18.698272 -18.460881 -18.308741 -18.173852 -18.038963 -17.904074 -17.778451 -17.820363 -17.854325 -17.887071 -17.919817 -17.933848 -17.573368 -17.166954 -16.760541 -16.354128 -15.974449 -15.612338 -15.234457 -14.826383 -14.418668 -14.026503 -13.678998 -13.382009 -13.087287 -12.798847 -12.510713 -12.222578 -11.934445 -11.646311 -11.358177 -11.070043 -10.784334 -10.550371 -10.320920 -10.091470 -9.862020 -9.632570 -9.403120 -9.173670 -8.944219 -8.311108 -8.048130 -7.781134 -7.521974 -7.276468 -6.981014 -6.685560 -6.390105 -6.094651 -6.000000 -5.804392 -5.580830 -5.354774 -5.127605 -4.890436 -4.642287 -4.394297 -4.147335 -3.855540 -3.495697 -3.136235 -2.753555 -2.374443 -2.032674 -1.690909 -1.349144 -1.020893 -0.371903 0.276157 0.921845 1.570055 2.214481 2.858908 2.976334 2.905020 2.825637 2.720905 2.616172 2.511439 2.406706 2.301973 2.201787 2.159498 2.055141 1.132394 0.814441 1.460986 2.087510 2.244299 2.368863 2.505079 2.641294 2.728437 2.451174 2.168352 1.885530 1.602708 1.390178 1.192330 1.344874 1.568909 1.792944 2.016978 2.241013 2.461393 2.559621 2.647338 2.747162 2.825555 2.921116 2.990010 1.145309 3.115217 3.565624 4.398922 5.232220 5.985055 6.851466 8.008541 9.689730 10.668900 11.440036 12.183895 12.900394 13.622542 14.241713 14.749244 15.191904 15.571518 15.892286 16.104210 16.265792 16.438872 16.621681 16.763467 16.909645 16.902406 16.806307 16.890374 16.977240 16.943558 16.852747 16.935721 17.150525 17.348872 17.507465 17.738720 18.041307 18.322328 18.585991 18.945456 19.328593 19.727229 20.252990 21.097123 21.976937 22.958084 23.996066 24.946675 25.923621 27.037339 28.451219 30.241291 34.487455 38.345123 41.144277 43.273073 45.332736 47.330912 49.231173 50.656956 51.760649 52.877654 54.111538 55.422274 56.668985 57.752447 58.680479 59.701603 61.526662 63.810553 66.187328 68.579045 70.649294 72.183001 73.686651 75.038424 76.317959 77.548985 78.683648 79.640448 80.318550 80.918819 81.591130 82.332947 83.090021 83.852331 84.500390 84.816780 84.842328 84.824303 84.760482 84.394674 83.451223 82.013663 80.498349 79.095839 77.865305 76.742029 75.776007 74.977735 74.106769 73.417759 72.791481 72.597314 72.582361 72.367695 71.855455 71.118084 70.199542 68.801511 67.871640 67.085400 65.889280 64.073385 61.919033 59.944273 58.171659 56.474637 54.607149 52.363630 49.911400 48.652811 47.331796 46.045301 44.274397 40.775381 32.889046 27.934170 25.068564 22.343942 20.000000 20.000000 20.000000 20.000000 20.000000 22.202142 25.018347 26.928660
-21.741546 -21.728836 -21.716127 -21.703417 -21.690709 -21.678252 -21.554058 -21.404509 -21.254959 -21.105410 -20.955860 -20.806311 -20.647693 -20.475182 -20.322674 -20.277731 -20.259621 -20.036060 -20.125282 -20.238087 -20.423428 -20.468634 -20.218088 -19.967541 -19.809999 -19.806570 -19.737853 -19.666775 -19.671398 -19.679169 -19.686939 -19.694711 -19.702499 -19.520832 -19.277494 -19.034156 -18.791031 -18.622009 -18.489480 -18.360779 -18.232548 -18.104316 -17.955251 -17.974709 -18.007455 -18.040202 -18.072949 -18.017111 -17.647574 -17.241160 -16.834747 -16.428585 -16.061396 -15.699284 -15.337173 -14.951946 -14.543872 -14.135798 -13.751907 -13.463773 -13.175639 -12.887505 -12.599370 -12.311237 -12.023102 -11.734969 -11.446834 -11.167061 -10.936371 -10.706921 -10.477471 -10.248021 -10.018570 -9.789120 -9.559670 -9.330220 -9.100769 -8.871319 -8.488125 -8.060634 -7.841924 -7.546470 -7.251015 -6.955561 -6.660107 -6.353394 -6.018979 -5.789114 -5.569060 -5.351790 -5.138471 -4.911273 -4.657780 -4.400297 -4.140569 -3.834203 -3.477788 -3.121447 -2.773498 -2.429887 -2.086962 -1.752435 -1.433878 -1.117000 -0.593370 -0.000194 0.612151 1.256577 1.901004 2.545430 3.013040 2.942897 2.859446 2.754714 2.649981 2.545248 2.440515 2.335783 2.231050 2.136119 1.560291 0.571149 0.220563 0.831986 1.430032 2.105616 2.230869 2.366791 2.503006 2.639221 2.562154 2.279332 1.996510 1.774378 1.572282 1.373302 1.537937 1.761972 1.986007 2.196236 2.300098 2.388103 2.470295 2.556302 2.665041 2.749509 2.840851 2.937945 2.587446 2.931942 3.181825 3.692098 4.293996 4.909741 5.676385 6.639104 7.923115 9.803176 10.731978 11.480141 12.219682 12.944069 13.662658 14.212728 14.474301 14.685787 14.876525 15.061641 15.211184 15.354020 15.527623 15.683442 15.852721 15.857762 15.835151 16.037942 16.125273 16.136779 16.106132 16.252705 16.489953 16.718682 16.955534 17.257149 17.579765 17.925597 18.278650 18.651745 19.042019 19.431382 19.802266 20.364160 21.261745 22.221764 23.169429 24.174114 25.136431 26.293017 27.786700 29.607652 33.061263 36.519669 39.463524 41.570127 43.481659 45.257602 46.968901 48.660394 50.128401 51.280782 52.620775 54.048173 55.278412 56.337703 57.443050 58.536980 59.659692 61.694972 64.146096 66.585475 68.867598 70.755984 72.227138 73.554708 74.821843 75.987809 77.030895 77.896841 78.603560 79.258307 79.947527 80.717868 81.547340 82.424596 83.109529 83.253774 83.238191 83.219760 83.195566 83.021517 82.179235 80.761488 79.235196 77.781573 76.397382 75.120057 73.928369 72.774129 71.485920 70.206427 69.481371 69.365391 69.554843 69.549598 69.132296 68.215413 66.819739 65.830271 65.533354 65.000573 63.690153 61.608372 59.504733 57.683840 56.020840 54.400269 52.740356 50.797643 49.461454 48.485859 47.401592 46.325055 44.872843 42.543121 38.389792 30.861609 26.458324 22.445425 20.000000 20.000000 20.000000 20.000000 20.000000 20.000000 20.455364 22.547764
-21.809999 -21.809999 -21.809999 -21.809999 -21.809999 -21.795650 -21.648510 -21.497087 -21.345665 -21.194242 -21.042820 -20.891397 -20.840063 -20.832834 -20.823355 -20.809865 -20.708846 -20.358374 -20.355670 -20.444893 -20.534116 -20.623338 -20.729310 -20.543765 -20.293219 -20.042672 -19.830526 -19.767455 -19.771965 -19.779736 -19.787506 -19.795277 -19.802345 -19.619338 -19.386679 -19.154095 -18.945109 -18.828763 -18.700531 -18.572299 -18.444068 -18.315836 -18.127837 -18.127839 -18.160586 -18.193332 -18.226078 -18.089260 -17.721780 -17.315367 -16.908954 -16.510453 -16.148341 -15.786230 -15.424119 -15.062007 -14.669435 -14.261361 -13.854063 -13.552431 -13.264296 -12.976162 -12.688029 -12.399894 -12.111761 -11.823626 -11.551821 -11.322371 -11.092921 -10.863470 -10.634020 -10.404570 -10.175120 -9.945670 -9.716220 -9.484725 -9.241588 -9.006249 -8.733291 -8.407379 -8.109845 -7.785541 -7.432669 -7.081634 -6.732804 -6.386079 -6.039632 -5.812505 -5.601012 -5.390055 -5.180226 -4.961966 -4.687854 -4.410611 -4.129963 -3.809348 -3.455642 -3.101835 -2.772714 -2.453570 -2.134426 -1.819119 -1.505998 -1.211028 -0.856117 -0.285009 0.339984 0.943100 1.587526 2.231953 2.876379 2.980774 2.893256 2.788523 2.683790 2.579057 2.468909 2.156526 1.699004 0.950637 -0.456677 -1.000000 -1.000000 -0.262734 1.575892 1.434073 2.395860 2.358713 2.369424 2.500933 2.629222 2.390312 2.133706 1.956481 1.754385 1.554274 1.731000 1.932466 2.025441 2.112276 2.208054 2.304424 2.386073 2.477911 2.573999 2.666072 2.757518 2.870037 2.977222 2.340437 0.606702 2.485410 2.855395 3.111774 3.332340 4.249090 5.429178 6.633168 9.773044 10.543992 9.551776 12.268356 12.954503 13.399647 13.549301 13.695135 13.858240 14.013834 14.150341 14.284138 14.436723 14.614452 14.799225 14.893092 15.012467 15.248990 15.364546 15.388466 15.414184 15.616125 15.849137 16.166343 16.493435 16.871027 17.269576 17.671496 18.007737 18.368258 18.782551 19.171633 19.508863 19.847017 20.325527 21.178106 22.093891 23.156541 24.243778 25.347467 26.825173 28.919105 31.784585 34.856185 37.452135 39.620530 41.342978 42.925750 44.592962 46.288254 47.957381 49.737792 51.321046 52.793026 53.997102 55.166571 56.322523 57.481705 58.672882 59.902720 62.257814 64.637781 66.881551 69.071213 70.778001 72.090931 73.282766 74.361328 75.349871 76.145818 76.859485 77.542150 78.278238 79.123689 80.144895 81.135331 81.630100 81.659481 81.634916 81.616361 81.605667 81.534584 80.965879 79.646482 78.090150 76.576345 75.115149 73.708071 72.347034 70.928941 69.373627 68.002063 67.017566 66.513156 66.337881 66.169654 65.721782 64.831856 63.380783 62.824678 62.905560 62.378569 60.969325 58.792981 56.796294 55.166282 53.636530 52.177682 50.703237 49.485815 48.841127 48.106981 47.243223 46.317683 45.056125 43.248953 40.320145 34.525768 29.627404 24.991276 20.786665 20.000000 20.000000 20.000000 20.000000 20.000000 20.000000 20.000000
-21.809999 -21.809999 -21.809999 -21.809999 -21.809999 -21.809999 -21.781650 -21.630801 -21.479378 -21.327955 -21.176532 -21.059867 -21.064921 -21.058269 -21.051039 -21.043809 -20.931620 -20.752781 -20.586059 -20.675282 -20.764504 -20.809999 -20.809999 -20.776076 -20.548666 -20.320941 -20.093216 -19.890040 -19.882574 -19.875107 -19.876573 -19.900412 -19.923091 -19.769727 -19.537144 -19.304560 -19.145222 -19.040284 -18.912051 -18.783820 -18.655588 -18.511676 -18.310599 -18.280970 -18.313716 -18.346463 -18.379209 -18.161409 -17.795986 -17.389573 -16.983160 -16.597398 -16.235287 -15.873176 -15.511065 -15.148953 -14.786842 -14.386924 -13.978850 -13.641088 -13.352954 -13.064820 -12.776686 -12.488552 -12.200418 -11.937822 -11.708371 -11.478921 -11.249471 -11.020021 -10.790571 -10.561120 -10.329920 -10.081136 -9.837198 -9.601859 -9.366520 -9.131208 -8.895958 -8.588600 -8.239723 -7.890846 -7.541968 -7.193091 -6.844213 -6.495336 -6.140175 -5.862544 -5.653543 -5.442769 -5.231163 -5.013908 -4.721467 -4.422101 -4.114528 -3.774595 -3.422484 -3.070252 -2.750912 -2.440246 -2.140345 -1.861036 -1.588096 -1.315156 -1.042217 -0.452426 0.234262 0.800051 1.371133 1.941380 2.562902 3.015791 2.927065 2.809144 2.464518 2.006996 1.549474 1.091952 0.634430 -0.615929 -1.000000 -1.000000 -1.000000 -0.954468 -0.373433 0.706371 2.111539 2.617500 2.580352 2.543204 2.520882 2.501679 2.340681 2.138578 1.922813 1.698078 1.785331 1.886275 1.987219 2.088164 2.189108 2.290052 2.390996 2.491941 2.592885 2.693829 2.794774 2.895718 2.966843 2.962443 3.009226 2.582383 0.603395 2.021084 2.567474 2.823853 3.080232 3.336584 3.533716 4.327097 5.852271 8.325517 12.219257 12.450924 12.544042 12.670450 12.820710 12.965075 13.085556 13.201571 13.346483 13.555571 13.753300 13.946053 14.223350 14.514648 14.620094 14.659991 14.758721 15.030959 15.354587 15.093441 16.247362 16.781710 17.152236 17.549355 17.950458 18.259134 18.661082 19.023334 19.375667 19.622503 19.812597 20.038647 20.883082 21.845948 22.923190 24.220634 25.820805 28.071218 30.564947 33.345801 35.671044 37.611355 39.120662 40.526483 42.353502 44.247057 46.187451 48.242130 50.246988 51.650856 52.940183 54.131326 55.329571 56.560083 57.799701 59.012222 60.433466 62.734165 64.966702 67.102117 69.068785 70.574119 71.673621 72.714491 73.645459 74.417698 75.154615 75.852939 76.640253 77.594115 78.764369 79.866829 80.093413 80.075974 80.048659 80.031023 80.023211 80.008291 79.751819 78.547306 76.985413 75.440562 73.927143 72.455953 71.003995 69.408135 67.633827 66.057244 64.787955 63.905370 63.317349 62.831072 62.317721 61.503870 60.076948 59.542677 59.922772 59.479554 57.863638 55.647672 53.757923 52.235690 50.903808 49.664971 48.598051 48.126047 47.812988 47.410422 46.772270 45.932890 44.835095 43.163798 40.351378 35.970358 32.097137 28.013307 24.221135 21.483760 20.000000 20.000000 20.000000 20.000000 20.000000 20.000000
-21.836462 -21.809999 -21.809999 -21.809999 -21.809999 -21.809999 -21.809999 -21.764515 -21.613092 -21.461669 -21.310246 -21.278690 -21.284460 -21.283704 -21.276474 -21.238409 -21.094713 -20.951018 -20.812199 -20.809999 -20.809999 -20.809999 -20.809999 -20.809999 -20.659344 -20.431619 -20.203894 -20.037734 -20.030266 -20.015184 -20.002549 -20.026387 -20.044669 -19.920192 -19.687608 -19.455024 -19.345334 -19.251804 -19.123572 -18.995340 -18.867109 -18.694439 -18.493361 -18.434100 -18.466847 -18.499593 -18.500678 -18.233558 -17.870193 -17.463779 -17.057366 -16.684344 -16.322232 -15.960121 -15.598010 -15.235899 -14.873788 -14.509646 -14.104413 -13.729746 -13.441612 -13.153478 -12.865343 -12.577210 -12.323821 -12.094371 -11.864921 -11.635471 -11.406021 -11.175115 -10.926766 -10.672260 -10.432807 -10.197469 -9.962146 -9.726892 -9.491644 -9.256396 -9.021148 -8.772897 -8.425382 -8.076504 -7.727627 -7.378750 -7.029872 -6.678072 -6.262079 -5.921841 -5.706927 -5.490566 -5.271866 -5.041952 -4.727667 -4.399612 -4.077043 -3.732760 -3.381234 -3.030471 -2.755286 -2.487711 -2.216257 -1.943867 -1.669366 -1.394865 -1.120364 -0.574740 0.155292 0.713223 1.314315 1.942249 2.617557 3.027754 2.920641 2.551294 2.123317 1.695340 1.267364 0.839387 0.107095 -1.000000 -1.000000 -1.000000 -1.000000 -1.000000 -0.839934 -0.221205 1.258335 2.827122 2.839139 2.800239 2.638145 2.432301 2.296516 2.041692 1.772389 1.661673 1.804771 1.905715 2.006660 2.107604 2.208548 2.309493 2.410437 2.511381 2.612325 2.713270 2.814214 2.915158 2.842372 2.888817 2.935451 2.981737 3.033713 2.820656 0.658914 1.558440 2.279553 2.535932 2.792311 3.048690 3.306781 3.603040 3.754606 3.902302 5.588904 8.204402 9.976115 11.371406 11.778019 12.073122 12.259459 12.500736 12.697886 12.926684 13.318338 13.522922 13.632559 13.986516 14.189251 14.586028 13.741106 13.682781 14.847870 16.012958 17.117216 17.559652 17.915634 18.197160 18.549491 18.901824 19.166062 19.354069 19.536992 19.716504 19.892898 20.331433 21.309259 22.811242 24.798283 27.088415 29.428205 31.852999 33.995022 35.697846 37.144998 38.650958 40.590785 42.747949 44.890124 47.010264 49.056166 50.675223 51.958060 53.208409 54.480000 55.740376 56.966999 58.162452 59.331301 60.896787 63.054277 65.108798 66.998473 68.649117 70.018976 71.056374 71.930464 72.716295 73.451481 74.191552 75.068267 76.102432 77.267166 78.553938 79.032014 78.938895 78.868616 78.847568 78.841014 78.821964 78.502972 77.426276 75.891469 74.335181 72.802056 71.287080 69.716542 67.754930 65.960597 64.262504 62.756075 61.504271 60.406873 59.493894 58.694844 57.853247 57.279405 56.994256 57.035719 56.072321 54.423888 52.353138 50.514749 49.103170 47.854168 46.819783 46.273128 46.479422 46.542568 46.436678 46.051082 45.218279 44.273383 42.217712 39.607169 36.458681 33.313346 29.999357 26.520495 24.014629 21.752496 20.043535 20.000000 20.000000 20.000000 20.000000
-21.989901 -21.851914 -21.809999 -21.809999 -21.809999 -21.809999 -21.809999 -21.809999 -21.746805 -21.595382 -21.491741 -21.497510 -21.503280 -21.508444 -21.501910 -21.401503 -21.256089 -21.071575 -20.878455 -20.809999 -20.809999 -20.809999 -20.809999 -20.809999 -20.770022 -20.542297 -20.314572 -20.185426 -20.177719 -20.150933 -20.128525 -20.152363 -20.162474 -20.070655 -19.838071 -19.606765 -19.545447 -19.463324 -19.335092 -19.206860 -19.074823 -18.877201 -18.676123 -18.587231 -18.619976 -18.652724 -18.574575 -18.305707 -17.944399 -17.537986 -17.134664 -16.771290 -16.409178 -16.047067 -15.684956 -15.322845 -14.960734 -14.598622 -14.229454 -13.826207 -13.530270 -13.242135 -12.954002 -12.709822 -12.480372 -12.250922 -12.020310 -11.772396 -11.517003 -11.264825 -11.028417 -10.793089 -10.557825 -10.322577 -10.087329 -9.852082 -9.616834 -9.381586 -9.146338 -8.911090 -8.611041 -8.262163 -7.913286 -7.564409 -7.213766 -6.802153 -6.387245 -5.988841 -5.757245 -5.528834 -5.293029 -5.043865 -4.716808 -4.376712 -4.039193 -3.689343 -3.337858 -2.992303 -2.724794 -2.459865 -2.194935 -1.931692 -1.667971 -1.405013 -1.147175 -0.685501 0.138919 1.377298 2.037655 2.712963 3.062258 3.262551 3.319065 3.003687 2.688310 2.365792 1.950653 1.522677 -0.451028 -1.000000 -1.000000 -1.000000 -1.000000 -1.000000 -1.000000 -0.858244 -0.100257 1.771649 2.557942 1.949567 1.671500 2.395263 2.140439 1.881319 1.303322 1.665894 1.826939 1.925156 2.026100 2.127044 2.227989 2.328933 2.429877 2.530822 2.631766 2.732710 2.833654 2.907608 2.768592 2.815391 2.861671 2.907952 2.954264 3.000516 3.091155 3.037287 0.730984 1.176121 1.999189 2.264751 2.580360 3.716450 3.811830 3.908099 4.005239 4.211032 4.958488 5.713985 6.435450 7.615544 8.813525 9.841569 10.708805 11.671813 12.353556 11.131006 11.502269 12.433130 13.685300 12.827492 11.920182 12.272121 13.437210 14.602298 15.767386 16.932475 17.939829 18.075649 18.427981 18.709169 18.894190 19.072931 19.248915 19.442773 19.643986 19.845200 20.000000 21.402570 23.640621 25.915711 28.148702 30.326520 32.249857 33.849359 35.331226 37.119000 39.374753 41.670277 43.829630 45.862249 47.815632 49.738742 51.130827 52.427757 53.697862 54.928658 56.135483 57.308334 58.416089 59.498353 61.139247 63.209661 65.050943 66.726196 68.168079 69.332012 70.233343 71.022014 71.772008 72.562035 73.471178 74.385496 75.754689 77.306843 78.020018 77.923894 77.790867 77.726935 77.688490 77.627454 77.184798 76.148451 74.759039 73.226676 71.670478 70.135857 68.004082 66.007093 64.188408 62.497642 60.890096 59.310799 57.724812 56.329905 54.936148 53.872774 54.256694 54.360836 54.160347 53.017845 51.094882 49.145640 47.538841 46.056041 44.774054 43.962143 43.830659 44.382905 44.889129 45.004904 44.675052 44.061582 42.533438 40.484796 38.327028 36.040819 33.419635 30.560918 27.874942 25.492800 23.413580 21.442089 20.000000 20.000000 20.000000 20.000000
